0.376774562173207 0.203113400035532 -0.78538660028562 0.894453037270829 812.739459965839
 0.324608834554963  0.229346129250938 -0.553560037387378 0.681468456691749 812.758336709155
 0.199568542936683  0.249980581229362 -0.444456761428674 0.547594473220197 812.778666260852
 0.250239798300522 0.0513907647309903 -0.604221314511532 0.656006375169606 812.799305070056
  0.467964197991216 -0.0735633393546046  -0.578429141676101 0.747651207073668 812.819313745799
 0.185275602688421 -0.173269333724044 -0.615246697107522 0.665490653024103 812.839117859187
-0.00371879687514089   -0.333843911944874   -0.588524429175431 0.676628842667177 812.860256397548
0.0456098005631251 -0.173242660541969 -0.288537256779452 0.339627769607963 812.878952888789
-0.0618804637163112 -0.0474864233724355  -0.152830381163976 0.171584607704706 812.899147590938
 0.0531377447303255 -0.0114564755445323  -0.207046998773811 0.214063846663023 812.919864124563
   0.391115720360606 -0.00701906233102227     -0.2054426242038 0.441845499907995 812.939369991567
  0.13541468037138 0.0192177961959919  -0.32030618160983 0.348285097769317 812.960380264547
-0.116975974724712  0.153273108551725 -0.115298282867079 0.224654664986067 812.981470905569
-0.265744914432656  0.409754501168797  0.263510793419927 0.554938779527714 812.999793430593
-0.240809664606293  0.527424469613256  0.195280690701167 0.611800959361249 813.020166087097
 0.15036567544761 0.476054140258365 0.116860933433994 0.512731760838951 813.039727072662
  0.158478433075061   0.371152562954641 -0.0919584663010997 0.413915448204311 813.059989046997
 -0.201253137112617   0.293059103033898 -0.0516013995091665 0.359234140220563 813.08114676947
-0.46793212331452 0.440133180131187 0.343438411926283 0.72844192017516 813.099637133545
-0.475525234557079  0.589846232867758    0.5165094575205 0.916965019418392 813.119585699084
-0.263070762782013  0.493874465277299  0.548144359887297 0.783313764056207 813.139655735018
0.106020972151167 0.421537775645859 0.565924887264839 0.713586379394995 813.160054710391
-0.220849855476693  0.328743451671637  0.427767142582337 0.582950807490748 813.180851486209
-0.571443184754603  0.204895788945793  0.462622572644035 0.763249135243524 813.199477409365
-0.558014717850213 0.0867855523989758  0.673520376002713 0.878943601338268 813.21950934728
-0.398200084548005 0.0223919936873498  0.728140269793987 0.830212600007367 813.239750308354
-0.0511469052918864  0.0487763823428428   0.792661082523347 0.795805713187885 813.260340941747
-0.346216279428861  0.105362115342337  0.732228002277824 0.816777041064909 813.280534854253
 -0.352547022734555 -0.0341129611711148   0.622449186594942 0.716167639070326 813.298499240239
 -0.342567987622512 -0.0632082989191232   0.748616016862747 0.825696103841741 813.318300646313
 -0.314416066423739 -0.0147688112726709   0.904942539482726 0.958121380816246 813.339484533795
  -0.197930393848781 -0.00211004055931741    0.832430433394852 0.855640882334544 813.359897959241
-0.157408562678153   0.10757953765246  0.749970391581491 0.773825820695338 813.379507029065
-0.10430593586784 0.103688837488355 0.622116959803325 0.639265684165734 813.397583551892
-0.187533451029656  0.089332454227688  0.644734892954554 0.677371511673288 813.417137424007
  -0.19087801359908 -0.0578411646690707   0.762755399424568 0.78840079639555 813.43786744453
0.0335877710729102 -0.205568091294057  0.775214620711958 0.802710462551419 813.459733418956
0.0167024570816381 -0.130094231585537  0.650013161494339 0.663114312377784 813.480980592266
 -0.166980684264432 -0.0176252022127959    0.42118086828727 0.453416497804919 813.499784501567
-0.134235000015129 -0.159122258929953  0.325705239206827 0.386552494963892 813.51656328798
-0.220076481384545 -0.394054792818008  0.417122505879879 0.614576294948768 813.536650535829
-0.098807790483769 -0.313857738159334  0.463275057188595 0.56823713172924 813.558151500947
0.0158769282716868  -0.10728452406749  0.424414604266711 0.438052282576636 813.57952873636
0.0268617135177817 0.0476887595656724  0.159654340269516 0.168775821162032 813.599633266694
 -0.0658083544943686  -0.0802053056885519 -0.00501533131916177 0.103869072057526 813.61698062999
   -0.181517586238427    -0.284393151120324 -0.000465428220413035 0.337384521194142 813.636279559204
 -0.190462671183953  -0.400007185634544 -0.0964100843425784 0.453405648439384 813.657000430176
-0.140981964663747 -0.326961794055773 -0.103366910090602 0.370762251630743 813.678813853332
 0.151782591616292   -0.2261630108357 -0.127896694229939 0.300907339529918 813.699465113708
 0.178603864074807 -0.122218174179076 -0.302551469054708 0.371986577431607 813.718826217507
-0.159596838170507 -0.337864172276465 -0.441297710145954 0.578244773986022 813.73678267083
 -0.25967122875661 -0.498071062045123 -0.616569697339821 0.834063619616899 813.757773275231
-0.252239981187711 -0.424191855947002 -0.647101405491797 0.813820599242117 813.778629854057
 0.254268305706849 -0.258463054619176 -0.552396483373061 0.660755171552241 813.799312433098
  0.411897521018878 -0.0619218131777517  -0.649498878016488 0.771584519876724 813.818650209103
 0.296951718321486 -0.250027557935751 -0.666529662270312 0.771333840452741 813.837084722195
 0.284131234901827 -0.308167777903991 -0.813042267552066 0.914732565732371 813.857944501553
-0.0979562635307963   -0.21235337500792  -0.882699438948708 0.91315260770724 813.87798801199
  0.122965810040814 -0.0382704606675505  -0.925101060683183 0.934022050636841 813.899158330593
 0.396199888052403  0.163210594811747 -0.812347577160514 0.918433794930314 813.919538449462
  0.51860408950485  0.289912502097996 -0.902076776249293 1.0801583081994 813.939980158981
 0.440980769484968  0.409286654274892 -0.720382838555051 0.938579265969434 813.958610110458
 0.013822030633464  0.494363520830322 -0.754118303567118 0.901820799845253 813.978981650527
-0.0197971671188822   0.482402107160659  -0.897626999298578 1.01923400192927 813.99980672377
 0.418953331860053  0.431981485428132 -0.782236527851677 0.986926483348574 814.019889671632
 0.324132591529347  0.470005835966528 -0.812144290648814 0.992746579730995 814.039764965364
 0.234494701378035  0.380714729984838 -0.596039013632414 0.745113398331893 814.058621540376
 0.175057400363275  0.604216243684397 -0.392407988556194 0.741421871835966 814.079213756868
0.0672860827193362  0.598953908143463 -0.423711901640388 0.736752995650343 814.099656963655
  0.24160747950899  0.497910835064789 -0.387029162886778 0.675337653884664 814.119266306014
 0.539010087089624  0.556104780627346 -0.341486811298451 0.846402766602128 814.139887842269
 0.292270015602713  0.532204131140434 -0.374909216122812 0.713596468290851 814.160734201522
 -0.151984757604825   0.429681595913787 -0.0361867039201494 0.457203584797649 814.178821424575
-0.142274652522786  0.512617071794693  0.129358322422601 0.547496040739871 814.199489370437
 0.125717112377718  0.267199385848479 0.0950377130694047 0.310213589399076 814.219066950404
0.431673213589479 0.148894584423301 0.211739603822184 0.503333905502134 814.239887968623
0.176276637760461  0.14550109978121 0.229301447918984 0.323764076258342 814.260817808711
 -0.431683325171943 -0.0245150039275955   0.252994564867365 0.500956813010366 814.281846983516
 -0.528948758061419 -0.0831100143511814   0.326361988695354 0.627061568592237 814.299318411433
-0.437497752003891 -0.191609679872929  0.425153689820165 0.639432727030112 814.320008273495
  -0.1324801265176 -0.174276589744853  0.488761856834639 0.535547818921578 814.340524213208
-0.0262878626504632 -0.0859343364034553   0.633067181277383 0.63941365164213 814.361602486981
-0.380474304288102 -0.142521325859353  0.545996574612163 0.680577169787849 814.381690923108
-0.621107279660028 -0.241368729218219  0.561437201770329 0.871346571590659 814.399160542859
-0.627528148125069 -0.624041721596246  0.652869712295084 1.09975383982706 814.420460020162
-0.497061269321309 -0.676776961521173  0.716396098210375 1.1037754892351 814.441063190557
-0.283406074433712 -0.529166411147139  0.762278678949039 0.97026021153738 814.461223220922
-0.494736101084993 -0.433939073411641  0.686103858449815 0.950686822108026 814.4813772851
-0.504517317898289 -0.509611218910281  0.638241152670055 0.959996399712054 814.499751285649
-0.616951317160686 -0.762414331781928    0.7029100370163 1.2066428888412 814.51966609913
  -0.4521116790829 -0.918236381748025  0.631060228756649 1.20241425284602 814.54054850155
-0.251267562465633 -0.870974446017613   0.58055336797234 1.07646369498796 814.561249646722
-0.312250094569446 -0.633414175317342   0.48262419318082 0.855359427898596 814.579915887414
-0.239422543616294 -0.711284547331564   0.36879358303811 0.836216221173957 814.599177445947
-0.309531616470037 -0.912718135635439    0.4181925930909 1.05059471806614 814.618718961784
-0.269132445677372  -1.05137466455334  0.414371322161071 1.16169038526211 814.63983377845
-0.261121471915886  -0.92385988449419  0.223282379645355 0.985675671980002 814.659656463691
-0.0422846942392913   -0.80601306441633   0.102754234789115 0.813635967828248 814.680013176033
 0.0808717080901204  -0.657185349378713 -0.0410860697635681 0.663416069850627 814.699467323372
-0.0138093149383698  -0.779240454898957  -0.103666932381992 0.786227204184448 814.718748672018
0.0451505346086911 -0.881489074587711  -0.16782140133062 0.89845733462281 814.739076663503
-0.110676566159088 -0.744781779692631 -0.224604268002264 0.785745683324906 814.759182647237
 0.117410259502664 -0.579482147921053 -0.335693920561337 0.679908182843479 814.779197726736
 0.254974757647912 -0.439249233102385 -0.541109494624406 0.742126337621382 814.799310649404
 0.351643777916377  -0.38782144056349 -0.706578098021168 0.879381273914366 814.819536289977
 0.334064392207534 -0.310808715696974 -0.723329527293013 0.855223176105586 814.839076304244
 0.250319451056715  -0.16284773161421 -0.635574911830228 0.702235487437961 814.858629736709
0.341630835192173 -0.10127940782527 -0.64646435757673 0.73816347215277 814.879205603408
 0.299780088717389 0.0410511366655977 -0.728287418190516 0.788641782374958 814.89915366249
0.429561387354362 0.224085762266244 -0.86026084144823 0.987312579523559 814.920275197608
 0.573291584728632  0.389286376413321 -0.899072241281821 1.13513788546819 814.940004493339
  0.40428951896785    0.4897785054232 -0.722988971994574 0.962312866560356 814.959645404441
  0.31524861154022  0.711520039264116 -0.520413372259807 0.93620111695045 814.979721042258
 0.400918438931714  0.847701714593131 -0.405550213641093 1.0216676403723 814.999795688254
 0.368345402948269   1.00628671102824 -0.468131354160701 1.16937515170004 815.019666074576
0.240281210349724 0.996040690852347 -0.50843454247803 1.14382594911358 815.03885733396
 0.136382824973485   1.03432908209121 -0.395074146664274 1.11558079329553 815.058278217139
0.0339464224188134   1.29964729866734 -0.104602999687572 1.30429185693693 815.078700641455
 0.181150205870807   1.42211568634247 0.0241240993385868 1.43380974839664 815.099615329565
  0.183928299458458    1.35591227080686 -0.0708496858885316 1.37016326890513 815.119129629318
-0.0387867246276386    1.12353079334983 -0.0686962090867164 1.12629704019656 815.136986486617
-0.0649677341020995    1.48124595668568    0.19482546780066 1.49541544514419 815.157545458023
-0.222610961268092   1.50434947882944  0.471161312046684 1.59204773059751 815.177743807021
-0.217330614182541   1.24914875429604   0.40007905000172 1.32953693159332 815.199438310806
0.0826961380105646  0.905113350062877  0.507937750696313 1.04118662413918 815.219564595692
-0.29580199526542 0.861254012368807 0.276726257195148 0.951753495210607 815.240938687794
-0.687720103015725  0.563555887137182  0.273056067407855 0.930114935890817 815.257790353291
-0.721505535237193  0.563619927295472   0.64935005569677 1.12244962232425 815.278147241108
-0.501013433105733  0.390333855302266   0.81854448217478 1.03604538898945 815.299262826436
-0.265380332405574  0.154515294544489  0.718156738509697 0.781057487092178 815.319646804871
-0.504704758030509 0.0914621468541044  0.634080034189716 0.81556710750485 815.340678478302
 -0.754602108906736 -0.0292615517245818   0.488931867008272 0.899630452881637 815.361312015594
-0.825635904945385 -0.194844828688516  0.314072802750534 0.904588790682937 815.377993774475
-0.792278240721562 -0.459934667098766  0.539432540180762 1.0631237811873 815.3995061875
-0.740139110997501 -0.559583847817246  0.594973723904802 1.1022403179449 815.421283865611
-0.483510310804748 -0.511915747594997  0.584619780678227 0.915215953341345 815.442105740229
-0.405644801053452  -0.46084326888242   0.55417303292023 0.827062254919142 815.462346493403
-0.740664268871499 -0.575843251565028  0.306452768741387 0.986961148690868 815.479523510615
-0.762414703519015  -1.01212801463686  0.499096087961379 1.36190168630966 815.499350590388
-0.616199135821012  -1.16139234675257  0.530936454347281 1.41789529819266 815.521194232241
-0.483341626715427   -1.0073800083163  0.482094242433536 1.21690117423677 815.54312821509
-0.133035134005949 -0.733753953318725  0.419908416871893 0.855813232808828 815.562749598757
-0.249453406392361 -0.714823203567705  0.203706868527044 0.784025320129805 815.581819651858
-0.415077137986854 -0.981868064334196  0.118978660711465 1.07261822096375 815.599191966311
-0.141614084214696  -1.42812261386214 0.0954168857838298 1.43829521697219 815.621176824478
-0.151619215088487   -1.2606971026523 0.0681497187197114 1.27160919907869 815.642308763412
0.0656532157638867 -0.900259365339681 0.0253777216092131 0.903006809706339 815.66213004866
 0.194100184588075 -0.813659216747937 -0.196728538451297 0.85931270239487 815.681689611343
 0.193585614166359  -1.02748819104791 -0.404388671410831 1.12104307246443 815.69983808699
 0.179370385469227  -1.43144776646286 -0.451159383352514 1.51154266644442 815.720305303365
 0.108994983541271  -1.29214795038162 -0.364245540214387 1.34692280613205 815.740489667684
 0.39156383367668 -1.02249222535239 -0.32119126331862 1.14104181097008 815.760147149831
 0.491574108117837 -0.896031253080438 -0.574096661280493 1.17222185901908 815.780465158254
 0.389548057468294 -0.840482717827026 -0.729074595137443 1.17885904726479 815.799670846731
 0.323245636116591 -0.966488542922205 -0.827008865989595 1.31245247887065 815.819746778586
 0.331277164400039 -0.882115474174154 -0.654884571296405 1.14749556476376 815.839468689063
 0.390944339388315 -0.758954057218467 -0.582098800211057 1.0332897709139 815.859374649145
0.230460973563126 -0.48679034456742 -0.61990752935542 0.821195740887197 815.879523826697
  0.28834513562706 -0.130258940596024 -0.704442236018082 0.772236474618456 815.899521789648
0.422250248500602 0.138311481066398 -0.79412750359336 0.90998012622091 815.919251862707
 0.145908758464085  0.335147861637983 -0.774279934699609 0.856225946952949 815.939050578298
-0.00518436127748215    0.470051874992383   -0.589961576397748 0.754340973573242 815.958718218984
0.0192322235572604  0.646946194931383 -0.478840021272609 0.805106839824072 815.978971690359
 0.168053506788471  0.822047940075055 -0.408299492766367 0.933120181283641 815.999371333303
  0.10115228016524  0.830364682299064 -0.488226532423765 0.968556883386199 816.019086567241
0.0642306448799282  0.817557949762525 -0.544174457616418 0.984201410933614 816.039143614131
0.0482759059313678  0.788462815104263  -0.37209503402661 0.873188918987694 816.058825617152
 0.150148139619016  0.699571207191808 -0.139598613038838 0.728993902941049 816.078903028804
 -0.115620007276805   0.642329637208128 -0.0793726660653515 0.657461306113855 816.09920700677
-0.155395872379055  0.501701269272145 -0.157682643339787 0.548375652953658 816.119819802346
-0.0920089946041229   0.309746708669195  -0.232409620068511 0.39802375572301 816.139193484368
-0.0537274234288858   0.256663251080828 -0.0521593110693498 0.267363524466065 816.158999575676
-0.0650298843514357   0.397319895823903   0.179896547231231 0.440970240698844 816.179562556328
  0.13141579973366   0.38416989878718 0.0955162093142242 0.417109062231388 816.199442233147
-0.0690685545434057   0.298723930034715 -0.0497030588058081 0.310607220870273 816.219619926265
 -0.199072032317828   0.132807327337866 -0.0825345922612699 0.253139130056006 816.239114997676
-0.108220456976826 0.0950850002884335 0.0557666397101172 0.1544757025965 816.258837825587
0.00887746841463171   0.101691663284851   0.313966931335946 0.330144268161061 816.279232391169
 0.290991578201791 0.0557942609805509  0.319233314738704 0.435544495295022 816.299283523372
-0.0312506083363421  -0.021343961869189   0.122599461827107 0.128307417049682 816.319190390765
-0.161732527855639 -0.278399939168274 0.0405670926450617 0.324514446059257 816.339282164752
0.0928174712189668 -0.474270168860102  0.120352967516375 0.498028224927133 816.358798606097
 0.203193250218725 -0.519380987302664  0.343307627497874 0.654907805728531 816.378687709033
 0.231460393163843 -0.453611624483225   0.42961635905672 0.66626393826998 816.399107669055
0.0912988447527384 -0.459923837386651   0.27463566384778 0.543406075699157 816.419963950438
-0.168555188402344 -0.557456422270104  0.112389881114627 0.593127304753789 816.440371318144
 -0.167081372031326  -0.734451301443016 0.00212645124583292 0.753219371010937 816.460145732207
0.0699488706189411 -0.771606361161377 0.0714954168355267 0.778062218408048 816.480007296843
0.114093433039933 -0.67171218861258 0.211572056405851 0.713426457909531 816.499755633635
 0.18377860519446 -0.66966511298861 0.251304294553286 0.738498332931222 816.520218024147
-0.18563100934452 -0.67038388710761 0.131989750343061 0.708021695938336 816.540187420738
-0.327328517092382 -0.722474444354269  0.041041276036183 0.794227717462432 816.56014688958
-0.106372925194908 -0.818984341897308 -0.151109260246243 0.839574034865095 816.579959397209
0.0151217123014544 -0.816613501081474 -0.179759342017025 0.836301200150917 816.599591027153
   0.0299843783172 -0.720914431847153 -0.016237069475973 0.721720391435451 816.619326695871
-0.104497744863596 -0.617333357260041 0.0968455997400152 0.633560828063521 816.639674430322
-0.128116560552771 -0.423249674935283 0.0465522499779093 0.44465857958517 816.65977633233
-0.0264513803531698  -0.268010900523318 -0.0878172615377658 0.283269111881088 816.679587943506
-0.0287463525595656 -0.0947014258371589  -0.263011502522123 0.281015592627908 816.699423644495
-0.162215923518511  0.137097471661026  -0.15126141371988 0.260748418709196 816.719205385535
  -0.1292515179378  0.418081727211187 0.0586584304345279 0.441519078838228 816.739180778831
-0.0483390223479839   0.699471292991795   0.169514633784799 0.721340392511307 816.759203266471
 0.198554518742745  0.852178263528241 0.0966096020333143 0.88032102380223 816.779021492331
0.179576453545618 0.924297425067255  -0.1351444419295 0.951229442794122 816.799271210044
-0.00902114078931997     0.98187327253081   -0.127209994158676 0.990120642601372 816.819382733633
0.0574573462547778   1.08698863471415 0.0381635273981733 1.0891749599857 816.839431580831
-0.0190291021850265    1.20139623550802   0.129779784177823 1.20853540031066 816.859291573812
-0.0826832496976577    1.18446687500945   0.052704019224987 1.18851841021403 816.879356892873
-0.0345845358596087    1.06431559007859  -0.170652012484712 1.0784645913381 816.899499593069
0.0644307368359888   1.06829849855995  -0.14749535007224 1.08035544158744 816.918845230159
-0.0883765989621795    1.26275098667302    0.12246045106947 1.2717495978627 816.939333885249
0.0406733641584048   1.34636144029362 0.0963446733975951 1.35041687880208 816.959489276942
-0.0326568028649846    1.31323354452574 -0.0810876221821585 1.31613981465198 816.979824379024
0.0594521829739553   1.08301259425506 -0.100508049848661 1.08929000246024 816.99934584814
 0.147032226495327   1.14502840367048 0.0605070364700621 1.15601454242701 817.019362214708
0.0322047032596616    1.1615792834566  0.106207431915859 1.16686914144721 817.039343261384
0.328452245156403  1.02301035478887 0.158811098187285 1.08611787033497 817.06004241147
  0.103622051548384   0.983627133659276 -0.0783189672288682 0.992166179763076 817.080463081025
-0.145597182232116  0.596432209915734 -0.221828756253884 0.652792400078343 817.099134483003
 -0.150883414970126   0.488479685969255 -0.0939799245769574 0.519817693755378 817.118513095347
-0.165644263894482  0.378004222166323 0.0283818274878682 0.41367951637501 817.138290805308
 0.00140920315016787 -0.00397386928616192    0.141122420414608 0.141185392425347 817.159273719278
  -0.104746534989014   -0.184585428618726 -0.00600162391884174 0.212319656509299 817.179331950632
-0.455203333839956   -0.5183669174085 -0.250065856821026 0.733789662607913 817.199817607371
-0.444436473040775 -0.863671032956795 -0.214853978837552 0.994793276997743 817.218023727555
 -0.295740167887219   -1.20586068900687 -0.0299972830013666 1.24195897081246 817.239049148698
  -0.13314997008188   -1.26729188086863 0.00720201905861641 1.27428783833437 817.25967795958
 0.147544891466337  -1.20181376829222 0.0671730191227909 1.21269866131394 817.280244846482
 0.0256385024743067  -0.963242796716896 -0.0913152623040575 0.96790107726243 817.299656688828
-0.0113900847890997    -1.0406895407625  -0.114934449653979 1.04707897600956 817.319180864645
  0.0987473223990168    -1.21331664065587 -0.00520472120505898 1.21733947331722 817.339347893072
0.0609614016505687  -1.22198777695783  0.197370270949248 1.23932459161437 817.359720566107
0.070156090728994 -1.12035577160184 0.279173994184337 1.15674415972452 817.380191723181
 0.104376819073126 -0.945847443721341 0.0531716609714053 0.953073519034328 817.399503513647
 0.0110601329732383   -1.00650489567977 -0.0685712112247034 1.00889862849424 817.419841072103
0.0190614599138965  -1.13533605110077 -0.158815198142993 1.14654854033501 817.439525812169
 0.112386677881874  -1.13222168074037 -0.058909586483918 1.13930989598247 817.459544023534
0.0333477043391966  -1.01634870989861  0.159852744057972 1.0293831498913 817.479144575139
-0.0321013604659961  -0.812488530626555   0.176077288894379 0.831968341589908 817.499347066899
-0.0156999345802364  -0.529100432166943   0.129905177065129 0.545040466656735 817.519352165162
 0.192180276518702 -0.193756828832787  0.043853147782058 0.27640200066667 817.539165710389
    0.1635483326412  0.0794994345369908 -0.0984384650331138 0.20678091933129 817.559608737886
-0.0929134836515921   0.238468767068856 -0.0981498184011681 0.27410518996144 817.579459102571
-0.0588391991075604   0.312834576980451  0.0249408486017709 0.319295427206738 817.599181804597
-0.0453502392948873   0.469992305049184  0.0794252967491432 0.478808718355502 817.620053798598
0.0755464135050274  0.745521273609004 0.0283410731572182 0.749874953858819 817.640376989287
 0.195790157458277  0.985910946235837 -0.161029825517709 1.01798073870356 817.660087907714
0.0453355071473092    1.2019907718405 -0.205065010018695 1.22020030410256 817.680119337004
-0.0731144486092014    1.28739261407206 -0.0149531377711906 1.28955382272006 817.699818647307
 0.100205823786137   1.27200814694498 0.0648432060578249 1.27759562240441 817.719029786559
 -0.051193192457521    1.25760715379119 -0.0462867948876701 1.25949948932174 817.738155747863
0.00615924068771543    1.27409716268878  -0.174393825209106 1.28599172722398 817.758132451506
  0.121388537443484    1.39007530597623 -0.0870877173291514 1.39808039962556 817.77849316928
-0.0923699793769709    1.49968024788825  0.0655821088148817 1.50395281574685 817.799644544097
0.0621298620277954   1.35111745288246  0.147317247741192 1.36054432589358 817.819841054735
  0.110406770853174    1.43710828122123 -0.0636898432650414 1.44274954969322 817.840268888292
0.0736897820386907   1.08291307246828  -0.16139870078959 1.09735156040175 817.858129850206
 0.0741220407194743    1.06769167273514 -0.0245591986147302 1.07054319818725 817.878841188249
-0.0202171897174058   0.931653996235018  0.0893101923972515 0.936143265706047 817.899479486284
-0.0451215995620262   0.585143166819862  -0.031066052337993 0.587701951699056 817.920992270139
 0.172437131861047  0.322928838919166 0.0928051621202175 0.377664398065669 817.941062885907
 0.0264650029210695   0.335043519999099 -0.0355265501428458 0.337959601784076 817.962136765149
 -0.169948833260266  0.0955704450291297 0.00206852329330075 0.194988703975913 817.979233414319
 -0.31425733713918 -0.188601815319294  0.102486184585898 0.380567650646394 817.999328629163
 0.134034236931063 -0.519833968342642  0.139302600076352 0.554614952647856 818.020575815113
 0.339411003646047 -0.734781883727568  0.118605908375789 0.818029099453006 818.041764778049
 0.117787038987667 -0.931829960655175  0.112000523577164 0.945899032354757 818.061854747684
-0.408216777540899  -1.02010879248093  -0.12115591526151 1.10541469221538 818.080520599277
-0.478097941378509  -1.18601785152599 -0.111620812855735 1.28361800842434 818.099174949558
 -0.289953467095037   -1.43236735092219 0.00556370407211628 1.46143087276521 818.120952965764
-0.117878307942181  -1.35953640683946 0.0165790931773246 1.36473785150696 818.141967473058
  0.12076957198237  -1.19312209561435 0.0197192307416392 1.19938087054156 818.162090016393
 0.0271112197345738   -1.02248939572293 -0.0747546647978375 1.02557683403555 818.181106904058
-0.0665783703920894    -1.1881896017691 -0.0408897099530165 1.19075571698662 818.19981176856
-0.0657139037061237   -1.47119242451951  0.0167550953861446 1.47275463004714 818.220464998576
-0.132450576075293  -1.35329172947189  0.109496364722673 1.36415948995973 818.240272732112
0.0910582844313439  -1.25110387252837  0.113118630289543 1.25950320981633 818.260466850611
 0.109392919720124  -1.05197931106723 0.0514380097910692 1.05890186072631 818.279989902827
  -0.0203302582303197     -1.06015048569474 -0.000719383229741296 1.06034564611297 818.299674282405
  0.127732286949389   -1.06116640364323 -0.0775592302715425 1.07163664903303 818.319904430068
0.0964600619314736  -0.85304854832312 0.0252981722115554 0.858857594052269 818.339653707183
-0.0345727149844299  -0.543053466570013   0.163760315103785 0.568260310929766 818.359333909667
  0.05989472251282 -0.242283822707006  0.173969142699069 0.304227038807955 818.379629613555
 0.227736752277169 0.0599339213462801  0.108294009855426 0.259198178690094 818.399514272368
 0.316825531990988  0.266383182470819 -0.027234358123766 0.414825418564325 818.41933201628
 0.120566617960835  0.532293920628055 -0.111896714210601 0.557130148129886 818.439390148452
 -0.112752108885391   0.782603397845646 -0.0394595677231688 0.791667969455979 818.459096000961
-0.0582986888429696    1.09866133559736 -0.0421670532368684 1.10101477185189 818.479396290115
0.0903641151838989   1.31801730807121 0.0230748305001493 1.32131288705245 818.499352222732
0.0737835658869675   1.28553122253161 -0.102956573014728 1.29175639910378 818.518592927185
-0.0149217488837384     1.2073078808755  -0.212236687433673 1.22591165640378 818.538479993073
-0.056155600360063   1.18113392089107 -0.127748984851217 1.18934881076236 818.558129300324
-0.0338550763877683    1.36276241934014  0.0516977719314136 1.36416283389692 818.578953698364
-0.0368235189584505    1.30080843523736 -0.0917841918193859 1.30456233833462 818.599182725159
-0.138094900764534  0.885740235003158 -0.196039378077331 0.91762596044225 818.617772920809
 0.141951388705735  0.943447552445739 -0.123924364486043 0.962081456574552 818.636949959002
-0.0803246420856995    1.27069038716864 -0.0104721969805793 1.2732697181189 818.657824520311
0.0238428459577643   1.14688657695067  0.115759698776668 1.15296036772903 818.678477760515
-0.0748833170673918    1.05693969857766 -0.0304842492445717 1.06002751240543 818.699826523027
-0.102334918648834   0.79009401431614 -0.169394436983212 0.814503199695321 818.718953017765
-0.0257733833400831   0.513889623589372  -0.106987314413428 0.52554076717893 818.736738919789
-0.121321097926368  0.677213760695486 0.0201316967377429 0.688289598708947 818.756912065083
0.0745179102994774   0.57760458751019  0.121787758189046 0.594989274283941 818.778133790547
  0.32971778161974  0.356420883718294 0.0805431097807291 0.492175633691797 818.799663209492
  0.254544628709666   0.174805911653704 -0.0871612847969992 0.320853805215846 818.820016126425
    0.1189129920661  -0.193250498137254 -0.0893330810835485 0.243857446243269 818.838260951788
-0.00160997864999584   -0.215191838254166   0.0131439631202982 0.215598893895512 818.857787944586
  -0.169188232066906   -0.180509522090617 -0.00690363260746885 0.247499506218673 818.878059074194
-0.0481250637889463  -0.394849963314206 0.00761005401474382 0.397844728777481 818.899518790991
-0.0550804111349106   -0.36761158456638  -0.113195166760384 0.388568236705095 818.920505080395
-0.0207207674399392   -0.44983618572117  -0.233411815703416 0.507211021072529 818.941267743283
-0.00109702331837438   -0.530010104749341   -0.122753136308501 0.544040666742976 818.958571221523
-0.071547482368627 -0.527384319647074 0.0741265583335228 0.537352779366841 818.978650735073
-0.138297275713532 -0.493953150477748 0.0980942666149421 0.522243560495868 818.999349656277
 0.134415409012054 -0.413381405201297  0.118350900871949 0.450509294114204 819.02026785468
  0.154407480094845  -0.262784797741838 0.00166451761009994 0.304795489553787 819.040954990376
0.0209913135150657 -0.316437467919745 0.0569680898944624 0.322209046447754 819.058572013844
-0.119987689952059 -0.408735733259092  0.339563035171553 0.544761415885704 819.07871477126
-0.217786914810059 -0.374710838234428   0.61988539612036 0.756371110550982 819.099202190388
-0.0998385864156527  -0.353598665655386   0.668989491058654 0.763247468936296 819.12033325709
 -0.03279783462984 -0.295570665609686  0.563689009848098 0.637324890576924 819.141552310359
-0.197996832147176 -0.218006372033266  0.455325613660685 0.542264638569493 819.161146335017
-0.256282938276626 -0.285985422696759  0.563212664777038 0.681672290922843 819.179143573176
-0.283672354595984 -0.242288150162578   1.02972250127328 1.09521777838918 819.19946094836
-0.469904062058757 -0.120820133841191   1.14328423322163 1.24197671886952 819.220941994531
 -0.267369959886769 -0.0958412328754681    0.93648291130297 0.978607419004898 819.241292904718
-0.256065142541731 0.0457194868803163  0.638627658941806 0.689568644495244 819.261877369745
-0.142463212846091 0.0131036600878782   0.51822967170561 0.537614606905573 819.280102730615
 -0.236987368844483 -0.0139827956645151    0.69145298883482 0.731071656771778 819.299299988611
-0.557715251742945  0.041849657193417  0.851924729135338 1.01910423409297 819.319831695561
 -0.416746969477819 0.00589336235963919   0.835186713542469 0.933407528771179 819.340506277089
-0.105770261971515   0.12867617498932  0.617150288310464 0.639233435208996 819.361297178273
0.0712513554191547  0.213667403062382  0.332917064341536 0.401950602077265 819.379950067524
-0.011358546212682  0.115158387186689  0.222444081960534 0.250742577778027 819.399113084797
-0.253312840453305 0.0885426310496374  0.224005862995665 0.349550882287753 819.419612446001
-0.429859438889407 0.0645589274954708  0.114004394869582 0.449381791321434 819.440130817583
 0.132128347192631 0.0162203478491332 0.0903416917977558 0.160880766697216 819.461622528246
  0.37961384276882  0.151034240165979 -0.168671493104914 0.442004619784077 819.482340648821
 0.264680894402132 0.0858270909670814 -0.426276520951883 0.509051999033719 819.499758945635
 0.129049456575308 0.0508477404433178 -0.641667458542197 0.656487914818373 819.520180700407
 0.0655860472758262 -0.0551314234125522  -0.617223867562818 0.623142284020242 819.540323433027
 0.239011245457973 -0.195977211356543 -0.586354914355251 0.662831447967742 819.561091148482
 0.378654354587127 -0.147737392005009 -0.810632554824436 0.906824457205157 819.581914390669
 0.169575863523823 -0.100472095430705  -1.01206413278309 1.0310792521994 819.599599166975
 0.234545257795751 -0.200330570701266  -1.21721389196613 1.25568844635415 819.619575007632
  0.26118119732312 -0.186197628679402  -1.22044740332436 1.26189422656661 819.639691910937
 0.186537403641908 -0.180316971721715   -1.1532593874733 1.18208190411818 819.660636803821
 0.335568483969604 -0.113677697155484  -1.13305878496096 1.18716091429993 819.680998391345
0.380403757549882 0.025744112419162 -1.17619371555664 1.23644710141487 819.699435876086
   0.50187715929516 -0.0200526291102365   -1.29465412642968 1.38867278292541 819.718326623113
 0.534538402276941 0.0103916322884715  -1.23565627161837 1.34636017139553 819.738237586172
  0.54157736078249 0.0931447542479436  -1.10364045750275 1.23288452111012 819.758905528219
 0.516569518353511   0.15497487475448 -0.991415358300516 1.12861228584988 819.779076468618
0.528699869147574 0.134397253256658 -1.00854407452339 1.14662431666864 819.799296965749
  0.495754020489839 -0.0374997326565047  -0.935923158530184 1.05977848508746 819.817442649619
  0.333704176860728 -0.0743159730872734  -0.872323165635254 0.936925315494312 819.836194961326
 0.370463429824594 0.0757582847152281 -0.757533140390364 0.846663409703102 819.857383563773
 0.256819105336409  0.267392121443403 -0.526443954528157 0.643892721449032 819.878467559592
 0.320939117840607  0.394822657840126 -0.433907968988759 0.668702455548205 819.899138107078
 0.279590522557881  0.290888079501099 -0.304750663509475 0.505628027318 819.918819932671
 0.227618988402705  0.188311364716251 -0.203146394472487 0.358524799072447 819.938668565483
0.00783889693053318   0.120264327461283  0.0599093845114659 0.134588599507332 819.957356126518
-0.0745122192405095   0.182193826927638   0.440680325828142 0.482644601087261 819.979008790703
-0.0648325603811175   0.202443581739761   0.446668052151646 0.494670611100093 819.999773523064
-0.119417392822759  0.119683383603031  0.406588376454508 0.440339339472603 820.02016759191
 -0.103767364605938 -0.0871694461865139   0.418488435785763 0.439884927216357 820.03899467359
-0.297816063608121   -0.2163490915075   0.59217532777198 0.697261038608216 820.057523482184
-0.398645177890911 -0.154469294698065   1.02063843749702 1.10656294938722 820.078851168494
  -0.327120765576021 -0.00644017159373453     1.09717939320036 1.14492449180927 820.099618250708
-0.473570756471458 0.0864421625342073  0.949247019779361 1.0643361374155 820.120347831646
 -0.385422091491311 -0.0383000453501672   0.640208516804932 0.748253985671264 820.139405515591
-0.405049320990409 -0.189834857244603  0.706589983911376 0.836284419814066 820.158672147671
 -0.454234881035797 -0.0810598255597177     1.0842215727527 1.17831932908347 820.178893011013
-0.550288466499705 0.0740753682920815   1.30872660768336 1.42164337659225 820.199454732815
-0.481424715248923   0.21139768611868   1.16948910534885 1.28224939293356 820.220380395916
-0.450301959171573  0.232638556307464  0.856386302054906 0.995133182374025 820.241231609371
 -0.395428685854852 -0.0114214814162687   0.530735740541613 0.661947673251362 820.258981647518
 -0.326573509126112 0.00639924375679991   0.678742302514475 0.753247847926732 820.278095031765
-0.670975146899504   0.21099748327177  0.899148814314052 1.14157618054434 820.299270423916
-0.463926060367635  0.172028952321874  0.818411723308221 0.956357202499949 820.320297330127
-0.358435720840282   0.27217071148094   0.54155342494833 0.704154226171796 820.341435731159
-0.168018596771576  0.219175770101633  0.160725599866229 0.319532448294523 820.361116704212
-0.0200410039451611  0.0772784277826878 0.00397302119021267 0.0799336108096709 820.37955056499
-0.100340330281966 0.0318788735917735 0.0122487232326728 0.105992809583504 820.399505345569
0.0498743679779738 -0.117824856825781 0.0146339984625478 0.128780058154281 820.419917560552
 -0.100332110374565 -0.0571269909328246  -0.221724323058402 0.249983401250882 820.441511503195
-0.0450082407023318  0.0414163250010218  -0.483206949885429 0.487062634704499 820.462982027029
  0.186238933748598 -0.0763181974547433  -0.614262153776196 0.646395700224194 820.480538835501
 0.412643303417029 -0.200490923369752 -0.647899418221441 0.793879564128122 820.499351526235
 0.330218359431257 -0.161323750426441 -0.716019284291292 0.804831120691874 820.520186628406
 0.359618646485841 -0.187376902737039 -0.691994403529666 0.802054816765046 820.540716154163
 0.280847358219906 -0.112012026835668 -0.847563149489751 0.89988067272718 820.56226488692
   0.13315976670043 -0.0352496353048031  -0.944873072577945 0.95486081893631 820.580299924915
  0.246969312790821 -0.0717588495692738   -1.04719416669869 1.07831294006872 820.599191541736
  0.326114048554765 -0.0794209205613247   -1.05249450180843 1.10471839471631 820.619938626752
  0.292057947348808 -0.0669559727910743  -0.996696039479498 1.04076123199133 820.640340508923
 0.236580437598871 0.0517403711318871  -1.05331641733128 1.08079731887109 820.660841634259
0.369216740374812 0.154482347582055 -1.18918760748344 1.25473222756079 820.681125230298
 0.405700267225639 0.0827561391466989  -1.06337872568896 1.14114661618975 820.699432862744
 0.404871628826338 0.0680904545973078  -0.89935107988309 0.988630219405942 820.718354388631
 0.413463930207536  0.158473232466705 -0.850230220811212 0.958622770109177 820.739428952611
 0.389047755990992  0.292543315126234 -0.861577297113517 0.989573234565339 820.759913129247
 0.44036163134464 0.325012449995895 -0.80899130999845 0.976738654229398 820.780073411382
 0.473422445495382  0.155447488157655 -0.673465650767603 0.837764117301035 820.799279145635
 0.365098575484331  0.068981444340497 -0.417065613586661 0.558568827916853 820.816867323329
 0.228280988724329  0.214290161294913 -0.281304635426702 0.420909468833034 820.837886661937
 0.164262821456309  0.401290572061755 -0.194519288711348 0.475241150805785 820.859210918834
 0.359583455673598  0.429851969832851 -0.200182521098019 0.595101688215138 820.879892731121
 0.0844198124284004   0.174163383516924 -0.0629046290876466 0.203510641611597 820.899132072856
  0.0675184541973056 -0.00721330011406717    0.134916065337277 0.151040120636279 820.918364087438
-0.140857216283247 -0.118744949085579  0.252249798546176 0.312363696960752 820.937843207693
  -0.2536061030315 -0.108534251505456  0.430293082482451 0.51112412981283 820.958944770193
 -0.100167585837465 -0.0174591760274655   0.424478957123477 0.436486830409233 820.979916388845
0.0626691338670538 -0.104893826455824   0.49231043421328 0.507247177225718 820.999761863088
0.0610818595928942 -0.289280933795022  0.549079812755683 0.623620952987038 821.019009901049
-0.231779065601525 -0.447838686956683  0.727854714832084 0.88546796141334 821.037429031375
-0.365988486548804 -0.485015152292675   1.13990178564276 1.29172882260609 821.058749130251
-0.152164110566878 -0.294228540108693   1.14238044209382 1.18943575902088 821.079523063662
-0.248405568857919  -0.19093865796239  0.966040505973608 1.01557725305653 821.099624267581
-0.0740040753177065  -0.252357428154945   0.777426103410937 0.820702273040181 821.118922920392
-0.269597675074861  -0.36674612376481  0.822079783396245 0.939681220399291 821.138033680127
 -0.35240648355633 -0.305855285318144   1.10850785974805 1.20271669994758 821.158045345471
-0.401632983933464 -0.134657007340398   1.30797093340766 1.37485618376923 821.17875024812
-0.388862077548272   0.02450111642137   1.08729535696449 1.15500009235393 821.199443203137
-0.320884825495064 0.0513266403531716  0.709266401000496 0.780166855763008 821.219487022538
 -0.346348897526042 0.00618877472787004   0.428425223146393 0.550948302092105 821.238209758896
 -0.379436500237484 -0.0044062808585935     0.4660832588738 0.601020030636165 821.257586429734
 -0.44701417280558 0.0284001195910715  0.633701657080753 0.776019347483513 821.27840490355
-0.531227240132285   0.17357119185295  0.543950282082802 0.779878996176828 821.299276310105
-0.377460612939854  0.246771225111999   0.35419039808971 0.573431242576784 821.319444511534
-0.188787696344009  0.144797098860639 0.0353132778873358 0.240528629739754 821.338258823516
-0.0570982821430566   0.158382040618058 0.00952840495173677 0.168629401691854 821.358353752257
-0.166341129744646  0.169631986897693   0.12887351675574 0.270282751474408 821.378044010283
-0.20357538188697  0.18682286385087 0.157900092291379 0.318242294036309 821.399114429595
-0.127523707990499  0.197292177546286  0.040949329200929 0.238460367739814 821.420610815164
-0.0896328835918742   0.117862751394381  -0.131237371992419 0.19786088495386 821.441973726388
-0.0419080640688608  -0.060967432256485  -0.276466530581729 0.28619408827201 821.459581216928
  0.170082337309848 -0.0252882260295321  -0.159995416645011 0.234874496674101 821.478745763894
-0.00948300416627159   0.0299481369887234  -0.0908089068937029 0.0960888955516821 821.499757825967
   0.17067602173619 -0.0188075754389675 -0.0952367395926813 0.196351892931617 821.520418745463
 0.126691454092282  0.009445577773048 -0.214087014881654 0.248944157232944 821.541859632914
 0.0726225299273169 -0.0915890005775282  -0.293465352048156 0.315886830577951 821.560429209177
 0.0913667669386652 -0.0828915279683745  -0.216927070172656 0.24955208931894 821.579157358591
 0.0555331259049233 -0.0457248769644374 -0.0829334082179005 0.109784528257956 821.599600862925
0.0588694067806497 -0.123923332825428 -0.025587421604517 0.139561153684092 821.620734132176
 0.0367839219554143 -0.0771686464165959  -0.111875998121449 0.140798777906138 821.641416964894
0.0210577323665605 -0.093320599058662 -0.233798895805331 0.252614500733591 821.662516318684
-0.0935357985848486  -0.359010487834722   -0.24725388686422 0.44583849156583 821.680316222554
 0.0167468735371576  -0.689119181413472 -0.0809874632674549 0.694063882630223 821.699433844929
-0.0688251335465343   -0.84302248232329  0.0639236373163955 0.848239374303019 821.720719606824
-0.158394123108495 -0.782772249047268 0.0422610313337031 0.799754391599831 821.741044954724
-0.0759421350970291  -0.674543454068048  -0.113143258861717 0.688169656650886 821.76173181004
-0.152524610895074 -0.680813162493051 -0.206212450946122 0.72752587175831 821.780018709607
-0.0256405254111385  -0.803518008485305   -0.13190216237707 0.814675890734037 821.799270693249
0.0519051495490345 -0.879364728738853 0.0770316276758013 0.884256943632362 821.820173514328
0.061910485357864 -0.85263157638577 0.184485793872299 0.874556185380918 821.840453015289
0.0983620082808252 -0.811992093664993 0.0326038030971484 0.818577578989245 821.860382740936
-0.0462354905289334  -0.910242647223212  -0.132128734592014 0.920943755021586 821.879515641174
-0.010437922183739  -1.19593708354037 -0.291541710052334 1.23100407257929 821.899494767151
0.0875681236740976  -1.24266687685959 -0.168339574259478 1.25707094286267 821.919726244119
 0.0757565368600433   -1.09724483059328 -0.0596568074360223 1.10147365189285 821.939716846613
  0.129165102253537  -0.924830838272688 -0.0361400259470651 0.934506182181682 821.959375385431
  0.075305178721424   -0.85753595424142 -0.0803563906471849 0.864578470861293 821.978909088281
0.0468725032543513 -0.832415921577528  -0.13897728612932 0.845238418505078 821.999338607935
 0.114442536039562 -0.583292721291358 -0.154282286297046 0.614109531461358 822.019388296523
-0.159165659856503 -0.301535480899266 -0.122527482410296 0.362312485935157 822.039688949981
 -0.172064588818143   0.110861864863407 -0.0418422815765301 0.208919487682884 822.059592411437
   0.11786321917827   0.584938630251503 -0.0458684153952059 0.598455387749527 822.079393272795
  0.252807819471586   0.951709692823938 -0.0511687943633281 0.986043294443813 822.099186729827
  0.229719537128586    1.26451064922703 -0.0390316685830804 1.2858000306811 822.119837546039
-0.143563506480838   1.53745480573769  0.034819133812071 1.54453557167144 822.140028219867
-0.217629182342479   1.62778944014526 0.0374617876006626 1.64270030985135 822.159763090778
-0.0486296263110787    1.81326439179735  0.0620716076787586 1.81497809342019 822.180016047168
0.0485739656743007   1.76660921712254 0.0281585579532662 1.76750119110275 822.199767145801
-0.0771416711752843    1.43484177924525  -0.145034500829865 1.44421493391058 822.218205443819
-0.051617449842857   1.34780862772531 -0.140133074279763 1.35605668635428 822.237337056597
 0.0474397227213307    1.40968146338798 -0.0265902577631108 1.41073009371724 822.257956662615
     0.11790868234877      1.44132845162093 -0.000378850400940554 1.44614325236224 822.278576329668
-0.133679090978966   1.05256457572757 -0.095904979052938 1.06534503821469 822.299644666155
  -0.2514708176783  0.488625129386923 -0.246865435522718 0.602440563431781 822.318513297796
 -0.02446710142536  0.358252367582434 -0.172833970716647 0.398515971278769 822.336682275533
 -0.151130505433086   0.601498790798444 -0.0342376930578222 0.621138828789806 822.356630693197
0.0239614041752926   0.88992713772163  0.058730783389572 0.892184826289384 822.377531064748
0.00295653749819281   0.793020968946104  0.0690542831604857 0.796027318830833 822.39948152709
 -0.055243901360801   0.309411557975161 -0.0383934563799436 0.316640898083265 822.418899616442
-0.00481508328612808   -0.131650498958907  -0.0282392300507479 0.13473118798942 822.437794067583
0.0746057345016047 -0.332371184716819 0.0749381114960787 0.348786955898848 822.457445095262
0.0658701073597232 -0.523302585027972  0.160559813244498 0.551329230287718 822.478000084124
 0.237340908761403 -0.617752629190575  0.110063361562555 0.670867320266837 822.499320747576
0.00869199309858374  -0.950094542598002 -0.0199411666816266 0.950343538278215 822.521252392294
-0.094553587057889  -1.01405323656058 -0.171156728020973 1.03273373768429 822.54008047724
-0.00312731131368682   -0.983902470592808   -0.107921026530135 0.989808466159995 822.558688562872
-0.0227657184866948   -1.05415179918197   0.056709583584958 1.05592152668992 822.578886679175
-0.0139210329353048  -0.960670734212132  0.0973855620535008 0.965694569947527 822.599154409888
0.0591275457378717  -0.94890975300789  0.061964960695898 0.952767255090415 822.6212004768
 0.0756300656890487  -0.894015331097676 -0.0588217625771279 0.899134761215746 822.640717435037
-0.140859284376461 -0.962268435002104 -0.161687050127408 0.985872497423145 822.660051514779
-0.0643700699218658   -1.12401515804697 -0.0217588507388457 1.12606706239307 822.679924351846
0.0574850564055778  -1.21831708491403  0.158053455436462 1.22987070291099 822.699787892495
0.0183695475886062  -1.09392583920721  0.186063091210087 1.10978856358969 822.71957560077
-0.0134286380485992   -1.03303889030712  0.0816211021054794 1.0363453485763 822.738990546372
-0.151320012454095  -1.13481672211948 -0.034802494154844 1.14538986924562 822.759602133897
 -0.104420101803429  -0.981288433081018 -0.0311301153683319 0.987319416724944 822.779518370774
 -0.240821211104417  -0.800680347746901 -0.0141794632459668 0.836232582577263 822.7996290504
  -0.19115919231609  -0.456752753455719 0.00327193488148988 0.495152118196206 822.819496199715
  0.107492289154757  -0.146026390031761 0.00551583750713113 0.181407616369443 822.839242301095
  0.199338946624098  0.0108612452634881 -0.0824715044617115 0.215998915131666 822.858917243112
  0.158405443366584   0.257683832509661 -0.0940701311372416 0.316768735195266 822.879231944192
-0.0597661464062176   0.525863744916965 -0.0834809926485339 0.535792633961992 822.899469584573
-0.142627280350956  0.757614104111638 -0.179256715508599 0.791488876677443 822.919390004771
0.0661570936478298   1.13252113168916 -0.149779785138569 1.14429666555425 822.93912247433
 0.408177394628011   1.37470503934582 -0.102413751108305 1.43767566130341 822.9587020451
 0.291551632173287   1.47473815354075 -0.200709398969915 1.51662099371153 822.978929645198
0.0427168394539625   1.48096559306631 -0.130058332571039 1.4872790545457 822.999317767756
0.0581718566281022   1.38713008779035 -0.105082948116122 1.39232046287542 823.019002291138
  0.079982851374472    1.51439289093552 -0.0181898007742221 1.51661265769551 823.039114269669
 0.0943926395250152    1.61572677208275 -0.0695245174550366 1.61997426860701 823.059769905503
 0.153814728875225   1.45321327600601 -0.226526180430035 1.47878392836794 823.079555611069
