0.0548134409891 -0.613645440806 0.0415107817283 807.520096389
0.0434038085833 -0.641263102156 0.0397735112521 807.540805772
0.0313356433403 -0.667999128326 0.0385078132689 807.559782025
0.0192913948142 -0.692854258166 0.0376923802401 807.579335339
0.00789433390101  -0.713131166555  0.0371579976677 807.599159863
-0.00227629953421   -0.724663694317   0.0366546531559 807.620565402
-0.0106979431933   -0.72232361485  0.0359023960468 807.64061432
-0.0169534686527  -0.700747292291  0.0346166531454 807.660497342
-0.0208042666555  -0.655187583982  0.0325137985555 807.679939916
-0.0222601089185   -0.58236891656  0.0293143102539 807.699795049
-0.0216136653994  -0.481211252441  0.0247637592365 807.720404022
-0.0194160073859  -0.353296755591  0.0186846872282 807.74008486
-0.0163870203557  -0.202983674895  0.0110578088378 807.759580167
-0.0132743459334 -0.0371231738121 0.00211429415655 807.7798491
 -0.0106900592215    0.135600254627 -0.00759191303437 807.799627046
-0.0089629680291   0.305616261485 -0.0171668543357 807.819961311
-0.00804610508684    0.463558082226  -0.0254422205662 807.839846865
-0.00751339235936    0.601315356081  -0.0311336266921 807.859636698
-0.00666455149417    0.712875078338  -0.0330761780747 807.879734629
 -0.004731610644   0.794817955314 -0.0304964955933 807.899470888
-0.00114729509907    0.846410383005  -0.0232614433395 807.918967081
0.00419446722575   0.869316063214 -0.0120374377093 807.939700625
 0.010769204612  0.867022297658 0.0016959459809 807.959671107
0.0174144009342  0.844116022311 0.0158080038942 807.980240282
 0.022515733848  0.805547415253 0.0278456007953 807.999311976
0.0243639695062  0.755990806955 0.0354765070075 808.018641387
0.0216044790651   0.69936817604 0.0369595784091 808.038579131
0.0136635841035  0.638556123958  0.031536893957 808.059749484
0.00102857198999   0.575265571157  0.0196519910958 808.080164821
-0.0147133742305   0.510069614195 0.00293361975354 808.09916521
-0.0311126846339    0.44255529704 -0.0160622634879 808.11970219
-0.0453311622429   0.371579510851 -0.0343025789347 808.139570062
-0.0547419185538   0.295607873232 -0.0488245488593 808.159970857
-0.0575037338702   0.213104687864 -0.0572641577971 808.180110936
-0.0529600549179   0.122926730973 -0.0582558063983 808.198144285
-0.0417599071353  0.0246629436983 -0.0516250998049 808.219036002
-0.0256756565107 -0.0811361033718 -0.0383453215747 808.239092796
-0.00717541633947   -0.192878215375   -0.020281426901 808.258970924
  0.0111300042951   -0.308008788612 0.000209844043745 808.279718806
0.0270210125774 -0.423223252153 0.0207296887539 808.299629253
0.0390551377459 -0.534754319387 0.0392416047364 808.318778206
0.0467236841265 -0.638657800969 0.0543558247083 808.339523123
0.0503623081703 -0.731026763655 0.0654533032181 808.359132032
0.0508628654016  -0.80809536978  0.072646043992 808.379674196
 0.049282042548 -0.866241544313 0.0766029900446 808.399480288
0.0464629659868 -0.901944262757 0.0782934145632 808.419194168
 0.042774812142 -0.911779167021 0.0787103315371 808.439686677
0.0380368056296  -0.89253562708 0.0786339429272 808.459458959
0.0316387468376 -0.841509799925 0.0784804175513 808.479521623
0.0228158659823 -0.756979283323 0.0782578950025 808.499306467
0.0109957099812 -0.638805804199 0.0776254657183 808.519075312
-0.00388170713282   -0.489054258763   0.0760284856143 808.539372327
-0.0211597874202  -0.312472627599  0.0728697925044 808.558976483
-0.0394358032964  -0.116662961711  0.0676733186798 808.579037377
-0.0567218342675  0.0881981941767  0.0602037602863 808.599160805
-0.0707680898659   0.290156372776   0.050520799824 808.619798878
-0.0794835867932   0.476746112695  0.0389646400641 808.639375235
-0.0813650918444     0.6365545373  0.0260862095035 808.659296427
-0.0758385388432   0.760801094071  0.0125460454589 808.67926993
  -0.0634313478883     0.844602151171 -0.000991280617179 808.699807185
-0.0457294868143   0.887619515252 -0.0139442384261 808.719589
-0.0251232041379    0.89390709994 -0.0258679836081 808.739952859
-0.0043965099614   0.870946499225 -0.0364692201694 808.75910069
 0.0137481310893   0.828053980975 -0.0455863539915 808.779181436
 0.0271275588128   0.774494092252 -0.0531469910105 808.79963199
0.0343916571612  0.717705353759  -0.05911978366 808.820249796
0.0351617164941  0.662014021818 -0.063477822243 808.840234326
 0.0299847467289    0.60809466699 -0.0661855009056 808.858608166
 0.0201343154358   0.553264981951 -0.0672115193026 808.879281373
0.00731663075413   0.492519112253 -0.0665608626092 808.899485108
-0.00664651729365     0.42004901712  -0.0643119974011 808.919398044
-0.0200902891012   0.330908072512 -0.0606442317613 808.940151775
-0.0316869976533    0.22245310123  -0.055843911487 808.95808588
-0.0405172209933  0.0952613063845 -0.0502849271853 808.979119838
-0.0460480010571 -0.0466590501317 -0.0443865650008 808.999320873
-0.0480576980949   -0.19639020199 -0.0385579833353 809.019990933
-0.0465527620409  -0.345230732317 -0.0331418712874 809.040495307
-0.0417095405281  -0.484175822487 -0.0283692061808 809.060600612
-0.0338522193456  -0.605434227944 -0.0243329439233 809.078926127
-0.0234571944171  -0.703662825816 -0.0209830093594 809.099171832
-0.0111627081863  -0.776665108494 -0.0181407178795 809.120344348
0.00223763246303  -0.825420165292 -0.0155291241727 809.14160245
 0.0158309934154  -0.853457638096 -0.0128159507564 809.16158776
  0.0286536881643   -0.865737031097 -0.00966570099835 809.181547686
  0.0397842708908   -0.867292637498 -0.00579619311998 809.199822268
  0.0484466840205   -0.861945919098 -0.00103292629545 809.219933873
 0.0541053334135   -0.85136070564 0.00464575982625 809.240193345
0.0565342297047 -0.834634416455 0.0110781243152 809.260222768
0.0558460925606 -0.808501710224 0.0179060571169 809.279863969
0.0524740637482 -0.768099803429 0.0245816943012 809.299664308
0.0471073415308 -0.708130753318 0.0303966660532 809.319438166
0.0405907283661 -0.624176213327 0.0345383551653 809.339734402
0.0338045036801 -0.513890360145 0.0361761923075 809.360239586
0.0275438237569 -0.377823794295 0.0345752677655 809.380013264
 0.022416483559 -0.219710070185 0.0292253223204 809.399504413
 0.0187759353852 -0.0461599357845  0.0199636560956 809.419826324
 0.0167035113149   0.134168744435 0.00706459817906 809.439706871
  0.0160480771566    0.311751730694 -0.00873091292699 809.459939373
 0.0165203890092   0.477489919875 -0.0262632174137 809.479640091
 0.0178237752633   0.623858295468 -0.0440816640791 809.499361442
 0.0197879076458   0.745700225605 -0.0606370286312 809.51897318
 0.0224659741686    0.84054061136 -0.0745081604534 809.53820792
0.0261617857949  0.908400584276 -0.084622334273 809.558109706
  0.031370301503   0.951202867462 -0.0904251586079 809.578980636
 0.0386369467098   0.971935448975 -0.0919596117856 809.599201026
 0.0483624808196   0.973774998191 -0.0898265270201 809.618214916
 0.0605973029744     0.9593563239 -0.0850216227555 809.638041058
  0.074878297662   0.930319156492 -0.0786741611201 809.657848091
 0.0901582997553   0.887187254735 -0.0717415170686 809.678032467
  0.104860488393   0.829559030127 -0.0647317548436 809.699449429
  0.117060041656   0.756531337674 -0.0575247426032 809.716892337
   0.12476138634    0.66724773522 -0.0493401797164 809.737321719
 0.126212429183  0.561458679854 -0.038864323433 809.757880107
   0.12018677478   0.439996660271 -0.0245069914998 809.778510654
   0.106174801069    0.305095232348 -0.00472811775302 809.799288913
0.0844500555071  0.160510058251 0.0216423087379 809.819939571
0.0560077168153 0.0114277343421 0.0551615331313 809.837842121
0.0223954508858 -0.135827956592 0.0956545237423 809.858895577
-0.0145309544806  -0.274263244899   0.142227926086 809.879340199
-0.0528907468506  -0.396809587151   0.193392937549 809.899120731
-0.091061047559  -0.49698646177  0.247250067632 809.921087908
-0.127916429897 -0.569557523898  0.301684550024 809.94139528
 -0.16298129977 -0.611096970142  0.354533366583 809.960461053
-0.196459153863 -0.620385476618  0.403705414454 809.980759785
-0.229122015543  -0.59857415778  0.447255979105 809.999776204
-0.262069788317 -0.549089498371  0.483429364125 810.020774328
-0.296395478121 -0.477293577984  0.510688081741 810.041499359
-0.332811624327 -0.389950227666  0.527745199584 810.059805927
-0.371302442215 -0.294570112134  0.533610271731 810.080557537
-0.410864735246 -0.198714075443  0.527650030347 810.099623928
-0.44938992719    -0.10932827 0.509654321391 810.119382858
 -0.483721516058 -0.0321722703481   0.479888690227 810.140127609
-0.509898861506 0.0286133555236   0.43911118901 810.15908749
-0.523571641079 0.0707687630033  0.388534491881 810.179142837
-0.520542172018 0.0939894123316  0.329724664507 810.199454589
-0.497368329358 0.0998110701467  0.264442328068 810.21902787
-0.451941806768 0.0913162961843  0.194447227852 810.239297855
-0.383949222687 0.0726878690009  0.121300001288 810.259986935
 -0.29513113917 0.0486509019821 0.0462016470193 810.27863866
 -0.189278584935  0.0238625040194 -0.0300914343119 810.299296604
-0.0719461649159 0.00232200842316  -0.107252140528 810.32010874
 0.0500916654014 -0.0131189282291  -0.185263781456 810.339649599
  0.169569172746 -0.0210726918038   -0.26421816593 810.360340601
  0.279537226444 -0.0217041371042  -0.344071093833 810.37867082
  0.374129995112 -0.0165686336778  -0.424406816901 810.399126692
   0.449176474777 -0.00821831513372   -0.504263691477 810.420608054
   0.502569941823 0.000361444663722   -0.582063903743 810.440146697
  0.534351300601 0.00638684594293  -0.655672135399 810.460534884
  0.546512175992 0.00786385726029  -0.722583318186 810.481454051
  0.542569154304 0.00401640853296  -0.780211847279 810.499786693
   0.526991580735 -0.00452984746432   -0.826229842579 810.520824859
 0.504576585715 -0.015845703192  -0.85888741541 810.540159669
  0.479857869333 -0.0270616505021  -0.877248568968 810.560864587
 0.456615303742  -0.03492856122 -0.881292814015 810.581051618
  0.437527941879 -0.0364698771721  -0.871860428228 810.599619687
  0.423989195547 -0.0296004843215  -0.850451536929 810.619939243
  0.416082694178 -0.0135923573293  -0.818919045802 810.639636601
 0.412701455414 0.0107033751601  -0.77911763684 810.65984267
 0.411781338803  0.040918892854 -0.732581448772 810.680508862
0.410612170131 0.073499357906 -0.68029838361 810.699441059
 0.406186773654  0.104229899717 -0.622627862559 810.719160885
 0.395550160703  0.128856183012 -0.559374381154 810.738891127
 0.376118439727  0.143686532351 -0.489990248728 810.757927943
 0.345947841664  0.146079297289 -0.413849949411 810.778894911
 0.303944365942  0.134750908158 -0.330526282034 810.798083846
  0.25000882354  0.109877773334 -0.240007916695 810.817866359
 0.185107957101 0.0730005346822 -0.142823001629 810.837856566
   0.11125327627  0.0267674787122 -0.0400622412241 810.857353301
 0.0313645404573 -0.0254269331877  0.0666828340144 810.877872294
-0.0509956909784 -0.0798434120093   0.175438826668 810.899147647
-0.132003657346 -0.132775956761  0.283995827237 810.918769281
-0.208024573493 -0.180856382559   0.39005051894 810.939176191
-0.276056061586 -0.221256268843  0.491325063166 810.959423406
-0.334081615151 -0.251782507296  0.585651375635 810.978873537
-0.381265626848 -0.270885518759  0.671025001889 810.999796426
-0.417952106508 -0.277614584544  0.745644617453 811.020522498
-0.445465555908 -0.271559786079  0.807955680328 811.039486264
-0.465746914567 -0.252814642516  0.856707979638 811.059774281
-0.480885887711 -0.221979703571  0.891021490662 811.07911274
-0.492630397037 -0.180208619265  0.910441476555 811.09963279
 -0.50196112225 -0.129278938039  0.914959014872 811.119827174
 -0.508811429878 -0.0716544429758   0.904979108905 811.139057807
 -0.511990246078 -0.0104977381794   0.881232662576 811.159592296
-0.509331070244  0.050406710318  0.844645649138 811.179389331
-0.498050699103  0.106846902232  0.796193126474 811.199478709
-0.475263538162  0.154501171412  0.736772874923 811.219615135
-0.438567616836  0.189357651554  0.667131225155 811.238476829
-0.386600702974  0.208184707287  0.587862704076 811.258653545
-0.319462221304  0.208979858334  0.499488251412 811.278611057
-0.238911618973  0.191316346108  0.402597872412 811.299319904
-0.148287679338  0.156515180541  0.298026797319 811.319090093
-0.0521436121484   0.107595811061   0.187023154851 811.339625774
0.0443486715058 0.0489960058148 0.0713624353481 811.358435931
   0.13611844066 -0.0139067336074 -0.0466293477133 811.378954143
  0.218901027265 -0.0754034314138  -0.164166585075 811.399162685
   0.2897883971 -0.130100147216 -0.278209988688 811.419822187
 0.347520593599 -0.173507027907  -0.38576305973 811.440252858
 0.392473281566 -0.202487478714 -0.484210183216 811.461158841
 0.426364608199 -0.215511162231 -0.571629545705 811.479833989
 0.451761453029 -0.212687462393 -0.647009223466 811.49979009
  0.47149751676 -0.195590114557 -0.710307620823 811.519608716
 0.488119588225 -0.166913831847 -0.762329850398 811.539893189
 0.503457955586 -0.130025363597 -0.804433438589 811.560147153
  0.518381070437 -0.0884811986749  -0.838119121452 811.579502397
  0.532752909086 -0.0455814354398  -0.864593693587 811.599618943
  0.545572285249 -0.0040167554423  -0.884402961201 811.619259821
 0.555242746288 0.0343524613705  -0.89722033048 811.639434868
 0.559903785137 0.0685648526082 -0.901843135964 811.65970298
 0.557751431333  0.098472788007 -0.896402447228 811.678834236
 0.547289169254  0.124519068023 -0.878743798871 811.699460724
 0.527475612298  0.147410131237 -0.846897389998 811.719106903
 0.497766911189  0.167739106098 -0.799535957396 811.738562896
 0.458080826959  0.185627956836 -0.736321868069 811.759174034
 0.408727499753  0.200465701544 -0.658071678664 811.77864252
 0.350353714299  0.210813776545 -0.566709919009 811.799318027
 0.283931915085  0.214526832251 -0.465032256486 811.819041988
0.210797140458 0.209098368703   -0.356337743 811.838681495
 0.132704946952  0.192191326642 -0.244010439341 811.858889907
0.0518642705837  0.162264082807 -0.131130186354 811.880321075
-0.0291000394272   0.119164753105 -0.0201762037497 811.899160263
-0.107280330458 0.0645532328857  0.087135971261 811.920159987
-0.179711128878 0.0020289121691  0.189868003175 811.940200854
-0.243656316975 -0.063106835126  0.287730248629 811.959841281
-0.29691308506 -0.12444897309 0.380841496009 811.980180282
-0.338081699223 -0.175361060656  0.469426534717 811.999221335
-0.366752552618  -0.20996637595  0.553512178949 812.019469619
-0.383572429812 -0.224068009398  0.632681395308 812.039884181
-0.390171613891 -0.215816747275  0.705932481618 812.059699309
-0.388959766766 -0.185995879189  0.771669757099 812.079186099
-0.382823172246 -0.137871204514   0.82782857101 812.099625567
 -0.374769899154 -0.0766435132979   0.872113873561 812.118543182
  -0.367569730121 -0.00861970482643    0.902310733167 812.13887231
-0.363427307071  0.059729373481  0.916610625111 812.158823486
-0.363717996427  0.122642076783  0.913893243335 812.178539676
-0.368810878375  0.175713661361  0.893912175647 812.199461108
-0.377999974113  0.216220929768  0.857352178821 812.21817391
-0.389558142881  0.243103060698  0.805750884676 812.238906933
-0.400915296434  0.256653864944  0.741302860214 812.259679073
-0.408946085303   0.25803834316  0.666584612269 812.279320156
-0.410337142582  0.248773680838  0.584252153891 812.299307087
-0.401993918006  0.230307515467  0.496765514888 812.317807266
-0.38144228858 0.203788392113  0.40618574129 812.338421485
-0.347178936303  0.170065430577  0.314071186703 812.358637874
-0.298926259419  0.129890956561  0.221476679692 812.379421581
-0.237753404945 0.0842463784479  0.129038679685 812.399148189
-0.166036596779 0.0346803719513 0.0371172756209 812.420178325
-0.0872501157446 -0.0164536868011 -0.0540369472164 812.438909671
-0.00560315121705  -0.0659478900433   -0.144119295429 812.459151679
0.0744357080006 -0.109918347804  -0.23263248517 812.479713664
 0.148660479617 -0.144200302005 -0.318789682951 812.499784602
  0.21361526289 -0.164901953141 -0.401471430278 812.519575294
 0.266965664973 -0.169027816035 -0.479244731991 812.540495287
 0.307689380865 -0.155067722393 -0.550446329353 812.55929273
 0.336053079593 -0.123447729759 -0.613322804212 812.579459352
  0.353383812883 -0.0767522550738  -0.666208979635 812.59962565
   0.36168454414 -0.0196521840887  -0.707716288683 812.619186908
 0.363175542463 0.0414889286988 -0.736897886057 812.640333398
 0.359858211038 0.0993116798777 -0.753359374918 812.658736944
 0.353190984192  0.146391048451 -0.757293082388 812.679219404
 0.343938907272  0.176283350736 -0.749428232809 812.699460966
 0.332215475439  0.184538105587 -0.730906773042 812.719179649
 0.317687735034  0.169507916906 -0.703111886665 812.739459966
 0.299876075155  0.132801418785 -0.667488998451 812.758336709
 0.278459472505 0.0792672857732 -0.625402061469 812.778666261
 0.253500786951 0.0164693791139 -0.578057373889 812.79930507
  0.225533472294 -0.0462960673041  -0.526504084179 812.819313746
  0.195492866547 -0.0992993512621  -0.471692255879 812.839117859
 0.164520245356 -0.133782013196 -0.414547382822 812.860256398
 0.133703164982 -0.143230528723 -0.356014679237 812.878952889
 0.103830606278 -0.124305996645 -0.297040345084 812.899147591
0.0752315286038 -0.077285100918 -0.238484405668 812.919864125
  0.0477351551051 -0.00596209387663   -0.180989118721 812.939369992
0.0207531087252 0.0829413832662 -0.124847315121 812.960380265
-0.00654802600056    0.180733301386  -0.0699204431589 812.981470906
-0.0350308329958   0.277903303888 -0.0156461165656 812.999793431
-0.065374835465  0.365288414166 0.0388474656641 813.020166087
-0.0979053006078   0.435094783891  0.0945330274794 813.039727073
-0.132487987451  0.481665188525  0.152225145663 813.059989047
-0.168501609027  0.501938117027  0.212335172248 813.081146769
-0.204885680521  0.495593731808  0.274706193481 813.099637134
-0.240247896392  0.464914020055  0.338572315326 813.119585699
-0.273006822383  0.414397935627  0.402648675139 813.139655735
-0.301546202507  0.350175367448   0.46532001387 813.16005471
-0.324364775904  0.279268091762  0.524871827799 813.180851486
-0.340213506508  0.208759087019  0.579706040918 813.199477409
-0.348214824933  0.144952532157  0.628498982281 813.219509347
-0.347956016995 0.0926264020632   0.67028304305 813.239750308
-0.339546165815 0.0544860288367  0.704455030811 813.260340942
-0.323627217047 0.0309117646521  0.730728815473 813.280534854
-0.301334598042 0.0200553477656  0.749056561275 813.29849924
-0.274208478039 0.0182833733444  0.759542772137 813.318300646
-0.244061522923 0.0209031321277  0.762370075213 813.339484534
-0.212813792803 0.0230490175812  0.757747226409 813.359897959
-0.182311598762 0.0205696943252  0.745881127213 813.379507029
-0.154153796364 0.0107480284813  0.726968361692 813.397583552
  -0.129552847058 -0.00728685692298    0.701198881775 813.417137424
-0.109255464881 -0.032535431003  0.668764185611 813.437867445
-0.0935373265258 -0.0624894498885   0.629863577221 813.459733419
-0.0822697155053 -0.0937930603692   0.584704809784 813.480980592
-0.075037209835 -0.123051352289  0.533499907551 813.499784502
-0.0712703161816  -0.147604181383   0.476462103332 813.516563288
-0.0703513061451  -0.166095181326   0.413812632955 813.536650536
-0.0716595490479  -0.178716651781   0.345803905899 813.558151501
-0.0745438972042  -0.187087719032   0.272758745274 813.579528736
-0.0782378132656  -0.193806927211   0.195117827587 813.599633267
-0.081757670041 -0.201790353192   0.11348353228 813.61698063
-0.0838365175067  -0.213545484452  0.0286495390841 813.636279559
-0.0829403094629  -0.230532446465  -0.058390517756 813.65700043
-0.0773931830127  -0.252732981199  -0.146458376937 813.678813853
-0.0656089652685  -0.278497630687  -0.234231188708 813.699465114
-0.0463944807542   -0.30468761724  -0.320304432221 813.718826218
-0.0192628161733  -0.327079829023  -0.403271193929 813.736782671
0.0153216961331 -0.340965469319 -0.481805031927 813.757773275
0.0558429013671 -0.341847090682 -0.554729195656 813.778629854
 0.099827325595 -0.326126551729  -0.62105612067 813.799312433
 0.144138848048 -0.291679079771 -0.679988896915 813.818650209
 0.185426255158  -0.23822536222 -0.730887798228 813.837084722
 0.220635583824 -0.167441922402 -0.773214773363 813.857944502
  0.247483513856 -0.0827873906895  -0.806473188048 813.877988012
 0.264799456545   0.01093346482 -0.830158836238 813.899158331
 0.272673934779  0.108198866254 -0.843734004124 813.919538449
 0.272388199425  0.203481621521 -0.846632060626 813.939980159
 0.266137615493  0.291909209245 -0.838296418214 813.95861011
 0.256596367436  0.369745140823 -0.818253354867 813.978981651
 0.246400548757  0.434605058191 -0.786211621588 813.999806724
0.237644638685 0.485387440665 -0.74217363559 814.019889672
 0.231485884945  0.521972196507 -0.686536537018 814.039764965
  0.22792994344  0.544797977895 -0.620160122078 814.05862154
 0.225834184122  0.554452541827 -0.544383967442 814.079213757
 0.223121962374  0.551393168908 -0.460985687624 814.099656964
 0.217161696838  0.535863100897 -0.372082094926 814.119266306
  0.20523628523  0.508002812975 -0.279982288394 814.139887842
  0.18501606305  0.468093167319 -0.187006869426 814.160734202
 0.154953870575  0.416829220489 -0.095293039324 814.178821425
   0.114541219663    0.355518466691 -0.00661235044278 814.19948937
0.0643934377499  0.286125130702 0.0777663127993 814.21906695
0.00616182047732   0.211132890984   0.157136666562 814.239887969
-0.0577017253084    0.13325586415   0.231317288623 814.260817809
-0.124278303784 0.0550739803594  0.300516577155 814.281846984
 -0.190546953641 -0.0213099390032   0.365125241442 814.299318411
 -0.253708700658 -0.0945036633227   0.425480652115 814.320008273
 -0.31141157863 -0.163897673082  0.481655259713 814.340524213
-0.361850861105 -0.229572942951  0.533315464772 814.361602487
 -0.40375788827 -0.292086356162  0.579680326298 814.381690923
-0.436320192309 -0.352201883414  0.619586563282 814.399160543
-0.459084199955 -0.410636517536   0.65164304701 814.42046002
-0.471880366457 -0.467869730619  0.674439063243 814.441063191
-0.474788698929 -0.524036037287  0.686759587288 814.461223221
-0.468140847448 -0.578895109039  0.687760101391 814.481377285
-0.452539601024 -0.631859950968   0.67706379442 814.499751286
-0.428869795938 -0.682060396443  0.654763372116 814.519666099
 -0.39827659466 -0.728421952428  0.621333515776 814.540548502
-0.362097154435 -0.769744999289  0.577482146325 814.561249647
-0.321747149461 -0.804775243372  0.523983396224 814.579915887
-0.278579252831 -0.832262625497  0.461538865295 814.599177446
-0.233740946952 -0.851010930394  0.390705531575 814.618718962
-0.188061034277 -0.859922064015  0.311910994208 814.639833778
-0.141989000645 -0.858037228001  0.225554582875 814.659656464
-0.0956021832843  -0.844574319093   0.132172277507 814.680013176
-0.0486850901429  -0.818959298268  0.0326290143622 814.699467323
-0.000873776700378    -0.780849307155   -0.0717042781906 814.718748672
 0.048154270442 -0.730145420576   -0.1788300809 814.739076664
0.0984763463468  -0.66699225311 -0.286093192836 814.759182647
 0.149746268022 -0.591761483766 -0.390258323265 814.779197727
  0.20108045907  -0.50501880699 -0.487696922089 814.799310649
 0.251036751399 -0.407479123786  -0.57466314638 814.81953629
 0.297696881832 -0.299960583805 -0.647620726294 814.839076304
 0.338844650743 -0.183351193694 -0.703571672108 814.858629737
  0.372215451092 -0.0586006028315  -0.740336787663 814.879205603
 0.395780868419 0.0732546744637 -0.756745980714 814.899153662
 0.408024025892    0.2110297667 -0.752710499742 814.920275198
 0.408157839467  0.353295893616 -0.729166966839 814.940004493
 0.396241889659  0.498257909991 -0.687903200105 814.959645404
 0.373167176027  0.643618440092 -0.631296825033 814.979721042
 0.340501962833  0.786450940964 -0.562015623743 814.999795688
  0.30022210832  0.923114440784 -0.482737340234 815.019666075
 0.254377841332   1.04925098592 -0.395941316659 815.038857334
 0.204767188499   1.15990736603 -0.303804976437 815.058278217
 0.152687730826   1.24981020309 -0.208210686944 815.078700641
 0.098821231234    1.3137961595 -0.110841529814 815.09961533
 0.0432737068948    1.34736072777 -0.0133250695155 815.119129629
-0.0142445620191    1.34724926335  0.0826242122582 815.136986487
-0.0741479566671    1.31198485248   0.175110277063 815.157545458
-0.13668188995  1.24222033763 0.262042728166 815.177743807
-0.201676789688   1.14082272448  0.341221235607 815.199438311
-0.268404353676   1.01264624584  0.410511942664 815.219564596
-0.335562700963  0.864015690126    0.4680915429 815.240938688
-0.401383779669  0.702006880075  0.512718608068 815.257790353
-0.463827091788  0.533657067439  0.543978765791 815.278147241
-0.520807440627  0.365250771241  0.562442510277 815.299262826
-0.570405611068  0.201803564764   0.56967746964 815.319646805
-0.611026520774 0.0468160549523  0.568077444303 815.340678478
 -0.641490035942 -0.0976919114925   0.560509705374 815.361312016
-0.661056069759 -0.230914884713  0.549831242117 815.377993774
-0.669394578288 -0.352853150122  0.538367291489 815.399506187
-0.666515578067 -0.463870734506  0.527465042989 815.421283866
 -0.65267818678 -0.564324519618   0.51722391123 815.44210574
-0.628300903047 -0.654343499517  0.506465086138 815.462346493
-0.593894304647 -0.733796042042  0.492949709248 815.479523511
-0.55002950615 -0.80243362168 0.473801743437 815.49935059
-0.497343402775 -0.860152526916  0.446050488641 815.521194232
-0.43657113396 -0.90728285711  0.40718646766 815.543128215
 -0.36859236562 -0.944806126132  0.355626428289 815.562749599
-0.294480635578 -0.974420326771  0.291007181505 815.581819652
-0.215549275638 -0.998406876483  0.214267481372 815.599191966
-0.133388579159  -1.01929628217  0.127521705909 815.621176824
-0.0498862482194   -1.03937048995  0.0337676827462 815.642308763
 0.0327801542259   -1.06007656345 -0.0635040853002 815.662130049
 0.112190499629  -1.08145633518 -0.160723836808 815.681689611
 0.185777376029  -1.10171420855 -0.254608596186 815.699838087
 0.250971098919  -1.11704199415 -0.342428061367 815.720305303
 0.305387970037  -1.12179050579 -0.422142138387 815.740489668
 0.347045842792  -1.10902531074 -0.492409087104 815.76014715
 0.374581007536  -1.07143749142 -0.552487217281 815.780465158
 0.387432088849  -1.00251007901 -0.602068763077 815.799670847
  0.38595387177 -0.897776880108 -0.641090014343 815.819746779
 0.371429891762 -0.755963820575 -0.669558894245 815.839468689
 0.345967418712  -0.57978741312 -0.687433423424 815.859374649
 0.312279082152 -0.376213531898 -0.694573835066 815.879523827
 0.273377209784 -0.156057121268 -0.690777206598 815.89952179
 0.232225638393 0.0670799012264 -0.675886240461 815.919251863
 0.191405817319  0.278403478879 -0.649946010907 815.939050578
 0.152856466947  0.463810270016 -0.613369463466 815.958718219
 0.117736355304   0.61174288222 -0.567068945431 815.97897169
0.0864371427082  0.714693176297  -0.51251797619 815.999371333
0.0587408253252  0.770085771934 -0.451721737553 816.019086567
0.0340820258534  0.780384366116  -0.38709196259 816.039143614
0.0118499090966  0.752406266534 -0.321239045253 816.058825617
-0.00834337787663    0.695977692371   -0.256709977447 816.078903029
-0.0264885307666   0.622184807033  -0.195713620264 816.099207007
-0.0421323039582   0.541548304496  -0.139881762489 816.119819802
-0.0544581398192   0.462457135145 -0.0901119728607 816.139193484
-0.0624661401364   0.390136997637 -0.0465251974885 816.158999576
 -0.0652077990503    0.326313294169 -0.00854970302061 816.179562556
-0.0620267270351   0.269581077705  0.0248819013423 816.199442233
-0.0527611205914   0.216348892666  0.0550588294288 816.219619926
-0.037872708375  0.162112103803 0.0831938133964 816.239114998
-0.0184783760988   0.102758281407   0.110157556558 816.258837826
0.00372497055702   0.035621596354   0.136294823608 816.279232391
 0.0266342901164 -0.0399216883142   0.161351577854 816.299283523
0.0479867914098 -0.122407840101  0.184518225893 816.319190391
0.0656381349828 -0.208750059423  0.204572085657 816.339282165
0.0778253187668 -0.295055185529  0.220087175458 816.358798606
0.0833703953898   -0.3775589194  0.229672060268 816.378687709
0.0817934794186  -0.45342786082  0.232195931306 816.399107669
0.0733226920446 -0.521220561513  0.226969139463 816.41996395
0.0588109638106 -0.580893223983   0.21385686234 816.440371318
0.0395888948974 -0.633354377064  0.193320719372 816.460145732
0.0172922697129 -0.679688149672  0.166397023725 816.480007297
-0.0063013289373  -0.720251951547   0.134626110438 816.499755634
-0.0294072534635  -0.753893298052   0.099943728323 816.520218024
-0.0503379025171  -0.777513449212  0.0645380730139 816.540187421
-0.067586527019 -0.786134240568 0.0306726267501 816.56014689
 -0.0799048875292   -0.773512159057 0.000480220079546 816.579959397
-0.0863860644339  -0.733214175225 -0.0242544143915 816.599591027
-0.0865570038468  -0.659953157895 -0.0422948052355 816.619326696
-0.0804756254334  -0.550905594131 -0.0531021995372 816.63967443
-0.0688143292479   -0.40672008856 -0.0569051316465 816.659776332
-0.0528977568219  -0.231976284494 -0.0546705303121 816.679587944
-0.0346539855876 -0.0349596302786 -0.0479713123531 816.699423644
-0.0164429498505   0.173244965351 -0.0387604933792 816.719205386
-0.000748756824169     0.380197250795   -0.0290787087137 816.739180779
 0.0102382540056   0.573826716434 -0.0207391856655 816.759203266
0.0150784168648  0.744119308626 -0.015046415585 816.779021492
 0.0134715141669   0.884448551949 -0.0126052412652 816.79927121
0.00646048458539    0.99230055763 -0.0132622968384 816.819382734
-0.00364105319422     1.06925945125   -0.016194610386 816.839431581
-0.0136294291079    1.12026221776  -0.020128548844 816.859291574
-0.0200538826899    1.15227045786 -0.0236446037019 816.879356893
-0.0200015543921    1.17261405922 -0.0255056160483 816.899499593
 -0.011854471347    1.18731889601 -0.0249408582925 816.91884523
0.00416212469607    1.19972864262 -0.0218269259863 816.939333885
0.0257881754344   1.20967262847 -0.016727578398 816.959489277
 0.0489723510517    1.21333093874 -0.0107844285081 816.979824379
  0.0685367630565     1.20382498536 -0.00548194622222 816.999345848
  0.0791533054678     1.17243811564 -0.00233626091182 817.019362215
  0.0764447649425     1.11026488589 -0.00257211652126 817.039343261
  0.0579836985672     1.01001311958 -0.00685317129336 817.060042411
 0.0239708468025   0.867649543326 -0.0151177738988 817.080463081
-0.0225668550117   0.683593837384 -0.0265488886451 817.099134483
-0.0761225405063   0.463228702917 -0.0396795351031 817.118513095
-0.129551484435  0.216599609465 -0.052611214804 817.138290805
 -0.175257042331 -0.0426859059461 -0.0633067612965 817.159273719
 -0.206495848482  -0.299203423998 -0.0699107840657 817.179331951
 -0.218550082836  -0.537814943206 -0.0710478252024 817.199817607
 -0.209537680388  -0.745756930167 -0.0660494346108 817.218023728
 -0.180702117701  -0.914320712856 -0.0550687295858 817.239049149
 -0.136129755248   -1.03979559646 -0.0390575579987 817.25967796
-0.0819627939988    -1.1234854158 -0.0196067274921 817.280244846
-0.0252811757971   -1.17080108674 0.00132143306551 817.299656689
0.0271098734854  -1.18963116747 0.0217145894829 817.319180865
0.0697441968128  -1.18834955169 0.0398193830752 817.339347893
 0.099218769773  -1.17389398142 0.0543732494874 817.359720566
 0.114474281034  -1.15032322178 0.0647121062914 817.380191723
 0.116631023732  -1.11814301979 0.0707379526209 817.399503514
 0.108468531019  -1.07451164063 0.0727683483828 817.419841072
0.0936962352223  -1.01423755188 0.0713234661673 817.439525812
0.0761820664846 -0.931310063817 0.0669230860327 817.459544024
 0.059288071124 -0.820597225968 0.0599573586248 817.479144575
0.0454166223216 -0.679327483425 0.0506636869373 817.499347067
0.0358119656478 -0.508043770208 0.0392006385976 817.519352165
0.0306046453202 -0.310858502616  0.025775612478 817.53916571
 0.0290429279231 -0.0950057474054   0.010768567808 817.559608738
  0.0298325383054    0.130161421183 -0.00519817064755 817.579459103
 0.0315041981172   0.354479398863 -0.0212710348963 817.599181805
 0.0327420985819   0.568305261922 -0.0364564983777 817.620053799
 0.0326272214137   0.763616566374 -0.0497678636918 817.640376989
 0.0307704857857   0.934700139812 -0.0603876556645 817.660087908
 0.0273292990709    1.07834815595 -0.0678011697125 817.680119337
 0.0229177005608    1.19358077407 -0.0718636086879 817.699818647
 0.0184354223328    1.28100275616 -0.0727807074128 817.719029787
 0.0148531536167    1.34196419771 -0.0710069870878 817.738155748
 0.0129968167261    1.37772315591 -0.0670900634514 817.758132452
 0.0133704135819    1.38879551108 -0.0615063685647 817.778493169
 0.0160455369508    1.37462753821 -0.0545380409525 817.799644544
 0.0206294214123    1.33365111456 -0.0462309364457 817.819841055
 0.0263073221831    1.26369841365 -0.0364515124653 817.840268888
 0.0319434986223    1.16268108651 -0.0250307974775 817.85812985
 0.0362206235282    1.02939166079 -0.0119548228219 817.878841188
 0.0377996570013   0.864267200643 0.00245792125461 817.899479486
0.0354879088346  0.669964882555 0.0174531874537 817.92099227
0.0284074716609  0.451629992331 0.0318561518081 817.941062886
0.0161555582745  0.216782645734 0.0442185058994 817.962136765
-0.00105849312703   -0.025194429388   0.0530745460601 817.979233414
-0.0223250859585  -0.263922042938  0.0572511978067 817.999328629
-0.046028832146 -0.489135159508 0.0561575839744 818.020575815
-0.0699580615287  -0.691870966953  0.0499792268188 818.041764778
-0.0915446878982  -0.865529770698  0.0397219104779 818.061854748
-0.108215993024  -1.00660064335 0.0270863553197 818.080520599
-0.117798628057  -1.11488420043 0.0141971230445 818.09917495
 -0.118884358096   -1.19312909186 0.00324472657368 818.120952966
  -0.111064792913    -1.24611440618 -0.00388188238067 818.141967473
 -0.0949746612918    -1.27933372091 -0.00589852599521 818.162090016
 -0.0721387319685    -1.29753811072 -0.00231200354825 818.181106904
-0.0446732321368   -1.30344638957 0.00653273715297 818.199811769
-0.0149268520017   -1.29691307875  0.0195358001157 818.220464999
0.0148504985123  -1.27475790926 0.0350241026154 818.240272732
0.0427465318305  -1.23132422105 0.0509886025559 818.260466851
0.0673053142022  -1.15967950764 0.0653351805922 818.279989903
  0.08753454647  -1.05323415804 0.0761180741757 818.299674282
 0.102836048522 -0.907462357388  0.081738616539 818.31990443
 0.112905213279 -0.721379584267 0.0811021353052 818.339653707
 0.117641289774 -0.498469781843 0.0737283276381 818.35933391
 0.117094735063 -0.246855441008 0.0598068305158 818.379629614
 0.111456706666 0.0213531076132 0.0401861562953 818.399514272
 0.101076956598   0.29143489891 0.0162871124989 818.419332016
 0.0864871116085   0.547926372144 -0.0100565846246 818.439390148
 0.0684096455702   0.776648002481 -0.0368113608204 818.459096001
 0.0477454793966   0.966524612455 -0.0619773137119 818.47939629
 0.0255467401136    1.11087264604 -0.0838034966835 818.499352223
0.00298730034753    1.20793048762  -0.100951061303 818.518592927
-0.0186610566581    1.26055614862  -0.112583248131 818.538479993
-0.0380512636128    1.27518059163  -0.118377862836 818.5581293
-0.0537991928863    1.26024977273  -0.118474027904 818.578953698
-0.0645597844606    1.22448245969  -0.113377152232 818.599182725
-0.0691581291424    1.17529379077  -0.103851576192 818.617772921
-0.0667764112024    1.11768274664 -0.0908279875663 818.636949959
-0.0571737967394    1.05376877331 -0.0753432331725 818.65782452
-0.0408910777969   0.983016144709 -0.0585161297268 818.678477761
-0.0193737926188   0.903039073512 -0.0415477378795 818.699826523
0.00505397692369   0.810769059708 -0.0257220741507 818.718953018
 0.0294110770893   0.703710311874 -0.0123774490359 818.73673892
  0.0504766284029    0.581014689537 -0.00282303042752 818.756912065
 0.0653443516628   0.444165164556 0.00180941765841 818.778133791
  0.0719993052023    0.297148607856 0.000766227921478 818.799663209
  0.0697720029692    0.146104832024 -0.00610940955031 818.820016126
  0.0595359531051 -0.00146006431154  -0.0181887901266 818.838260952
 0.0435702426964  -0.137729529261 -0.0339487211318 818.857787945
 0.0250949545386   -0.25569302324 -0.0509810174342 818.878059074
0.00757712131603   -0.35011545665 -0.0661394000999 818.899518791
-0.00603060455343   -0.418192465332  -0.0758181594528 818.92050508
-0.0139373685606  -0.459792797723 -0.0763325056956 818.941267743
-0.0158968797131  -0.477269462097 -0.0643512940263 818.958571222
-0.0132432828573  -0.474898238495 -0.0373228511152 818.978650735
-0.00858349557451   -0.458063521134  0.00616472687623 818.999349656
-0.00522901692908   -0.432348715298    0.066138090321 819.020267855
-0.00650466979603   -0.402696412655    0.141142557118 819.04095499
-0.0150893840133  -0.372780911811   0.228312221264 819.058572014
-0.0325232355956   -0.34468607395   0.323602567543 819.078714771
-0.0589641121384  -0.318914944853    0.42215948233 819.09920219
-0.0932128847084  -0.294689070858    0.51877740925 819.120333257
-0.132966150795 -0.270441194414  0.608384921254 819.14155231
-0.175214465632 -0.244377193056  0.686492314821 819.161146335
-0.216687716801 -0.214986055996  0.749542991476 819.179143573
-0.254257015359 -0.181406294721  0.795125088624 819.199460948
-0.285228889375 -0.143603177954  0.822019211334 819.220941995
-0.307505017426 -0.102360475087  0.830081982746 819.241292905
 -0.319619820508 -0.0591304070563   0.819993440335 819.26187737
  -0.32069858741 -0.0158071126241   0.792924585854 819.280102731
-0.310391705931 0.0255111864843  0.750199833967 819.299299989
-0.288832635612 0.0627245589614   0.69302805612 819.319831696
-0.256642742535 0.0938793538587   0.62235359652 819.340506277
-0.214975254273  0.117269327975  0.538843717196 819.361297178
-0.165564507292  0.131513838057  0.442995266713 819.379950068
-0.11073259591 0.135639602774 0.335321383951 819.399113085
-0.0533059856955   0.129182474497   0.216570910413 819.419612446
0.00359017112401   0.112307395311  0.0879347752101 819.440130818
 0.0568629907517  0.0859240656667 -0.0487999337714 819.461622528
 0.103871341718 0.0517590987356 -0.191178173374 819.482340649
 0.142857030414 0.0123388347988 -0.336104914691 819.499758946
  0.173285596482 -0.0291544631164  -0.479975066705 819.5201807
  0.195997387896 -0.0691653447195  -0.618891716694 819.540323433
 0.213103730006 -0.104162405579 -0.748945689955 819.561091148
 0.227619871118 -0.131087490653 -0.866520013629 819.581914391
 0.242889819504 -0.147767870559 -0.968577078388 819.599599167
 0.261911208603 -0.153198089037  -1.05288408522 819.619575008
 0.286697665199 -0.147620072023   -1.1181358667 819.639691911
 0.317814175151 -0.132374274837  -1.16394671646 819.660636804
  0.35418680094 -0.109550499363  -1.19070556014 819.680998391
  0.393228684966 -0.0815199278919   -1.19931788019 819.699435876
  0.431253636191 -0.0504647898816   -1.19088538273 819.718326623
 0.464084864473 -0.018027268943  -1.16639211845 819.738237586
 0.487726510948 0.0148295814476  -1.12646834007 819.758905528
 0.498959754145 0.0477137714329  -1.07128972478 819.779076469
 0.495753603084 0.0804859885135  -1.00064210643 819.799296966
 0.477433230966  0.112833698839 -0.914145511364 819.81744265
 0.444609643198  0.143879755814 -0.811593311557 819.836194961
 0.398926368037  0.171965369684 -0.693331567408 819.857383564
 0.342708755758  0.194701268623 -0.560588610481 819.87846756
 0.278604349646  0.209303359656 -0.415670800632 819.899138107
 0.209282447536  0.213144236271 -0.261966970909 819.918819933
 0.137227830868  0.204386439602 -0.103745574537 819.938668565
0.0646302370076   0.18253690989 0.0542247871143 819.957356127
-0.00665269676069    0.148780008838    0.207160301952 819.979008791
-0.0750913382994   0.106000532769   0.350757145643 819.999773523
-0.139468465064 0.0584814048891  0.481600261917 820.020167592
-0.198870485627  0.011333942488  0.597409793607 820.038994674
-0.252688575437 -0.030225516689  0.697085277726 820.057523482
 -0.300618365513 -0.0616124649305   0.780548852793 820.078851168
 -0.342637637361 -0.0794919576489   0.848426229512 820.099618251
 -0.378941307813 -0.0821811595607    0.90163320231 820.120347832
 -0.409823197745 -0.0697930613959   0.940953360491 820.139405516
  -0.43551228109 -0.0441300860975   0.966695936317 820.158672148
  -0.455991473132 -0.00837609323579    0.978507527073 820.178893011
-0.470842386851 0.0333429406783  0.975377914464 820.199454733
-0.479164084968 0.0764547997499   0.95583633262 820.220380396
-0.479605086256  0.116427703427   0.91829376413 820.241231609
-0.470526720792  0.149199698592  0.861460493974 820.258981648
-0.450286462305   0.17152324956  0.784759205386 820.278095032
-0.417598739006   0.18121444687  0.688658041276 820.299270424
-0.371906229406  0.177304726307  0.574860340152 820.32029733
-0.313684587998  0.160092921013  0.446307617958 820.341435731
-0.244611885214  0.131092201284  0.306981857717 820.361116704
-0.167558388702 0.0928674038006  0.161530963304 820.379550565
-0.0863847168219  0.0487678443386  0.0147793513866 820.399505346
-0.00556776440846   0.0025774352961   -0.128787392657 820.419917561
 0.0703012327578 -0.0418785172036  -0.265467568389 820.441511503
  0.137083655611 -0.0811191669993  -0.392635762122 820.462982027
 0.191648386672 -0.112334958154 -0.508830860807 820.480538836
 0.232327641523 -0.133612832706 -0.613628451043 820.499351526
 0.259186330192 -0.144033465164 -0.707329473587 820.520186628
 0.274034213296 -0.143634270881 -0.790534894403 820.540716154
 0.280148223344 -0.133253087407 -0.863700584612 820.562264887
 0.281727570294 -0.114286794439 -0.926770852653 820.580299925
0.283163401469 -0.08841326584 -0.97897102132 820.599191542
  0.288250704165 -0.0573305465816   -1.01880322309 820.619938627
  0.299489040024 -0.0225622171457    -1.0442443541 820.640340509
 0.317605272073 0.0146366984195  -1.05310175321 820.660841634
   0.3413896478 0.0532602853536   -1.0434499706 820.68112523
 0.367876974544 0.0924299542466  -1.01405686411 820.699432863
 0.392840444569  0.131204480342 -0.964711175469 820.718354389
 0.411509646978  0.168373685196 -0.896384812596 820.739428953
 0.419386255998  0.202296108936 -0.811196206045 820.759913129
  0.41301639197  0.230837609153 -0.712179487782 820.780073411
 0.390588792943  0.251451613117 -0.602901078775 820.799279146
 0.352259862229  0.261414230117 -0.486994794214 820.816867323
 0.300154437733   0.25819247337 -0.367703864789 820.837886662
 0.238046591079  0.239888018179 -0.247519280471 820.859210919
 0.170778632086  0.205671486363 -0.127986729709 820.879892731
   0.103519954703    0.156113018731 -0.00972137757143 820.899132073
0.0409934779524 0.0933296731828  0.107372371668 820.918364087
-0.0131982363286  0.0209064465611   0.223720732562 820.937843208
-0.0570342846074 -0.0564053891088    0.33961722317 820.95894477
-0.0902519733349  -0.133165456562   0.454770841286 820.979916389
-0.114221645243 -0.203820231357  0.567959844342 820.999761863
-0.131560158173 -0.263289213779  0.676866482284 821.019009901
 -0.14556873447 -0.307477029726  0.778133787958 821.037429031
 -0.15960393697 -0.333644387158  0.867642311317 821.05874913
-0.176489250515 -0.340597787676  0.940962443905 821.079523064
-0.198054946381 -0.328690489896  0.993907077971 821.099624268
-0.224864355466 -0.299659003232   1.02309585393 821.11892292
-0.256152215989 -0.256342790642   1.02644519959 821.13803368
-0.289968992505 -0.202344593473   1.00351190123 821.158045345
-0.323496309336 -0.141684462306  0.955637092006 821.178750248
 -0.353475937168 -0.0784861087643   0.885862139306 821.199443203
 -0.376681570425 -0.0167150528431   0.798620451435 821.219487023
-0.390360959384 0.0400308509311  0.699248400029 821.238209759
-0.392585299484 0.0886922366178   0.59339533929 821.25758643
-0.38246081463 0.126899618189 0.486433815951 821.278404904
-0.36018156642 0.153118165276 0.382967472252 821.29927631
-0.326930085838  0.166781020622  0.286507131782 821.319444512
-0.284659725071  0.168383370788  0.199345354711 821.338258824
-0.235813709925  0.159491178169   0.12261882204 821.358353752
-0.183043756419  0.142614740995 0.0565152299128 821.37804401
 -0.128981531194   0.120913788828 0.00056143878891 821.39911443
-0.0760913826517  0.0977368194912  -0.046075591608 821.420610815
 -0.026601680747  0.0760453391232 -0.0843337065907 821.441973726
0.0175133819751 0.0578208573695 -0.115082732837 821.459581217
0.0545407674008 0.0435837329547 -0.139042634766 821.478745764
0.0830583234006 0.0321547792551 -0.156777080851 821.499757826
 0.102004207379  0.020755992814 -0.168732986389 821.520418745
  0.110781915504 0.00547906354787  -0.175295085968 821.541859633
  0.109379022881 -0.0179368490172  -0.176832677554 821.560429209
 0.0984674695144 -0.0531622680037  -0.173728552895 821.579157359
0.0794516428837 -0.102374872591 -0.166393057628 821.599600863
0.0544365950026  -0.16561990126  -0.15527514694 821.620734132
0.0261006213655 -0.240618186293 -0.140884049277 821.641416965
-0.00252779071296   -0.323114709412   -0.123828661238 821.662516319
-0.028370901481 -0.407730819561 -0.104869571558 821.680316223
-0.0486455195856  -0.489145428591 -0.0849663016221 821.699433845
-0.0612009664416  -0.563322601885 -0.0652958335543 821.720719607
-0.0647960354199  -0.628460418869  -0.047220566866 821.741044955
-0.0592636010017  -0.685378887555 -0.0321933578923 821.76173181
-0.0455269907545  -0.737188574996 -0.0216012166791 821.78001871
-0.0254577071504   -0.78825692231 -0.0165649812283 821.799270693
-0.00159448705119   -0.842670577679  -0.0177277386388 821.820173514
 0.0232286276887  -0.902532768384 -0.0250764151075 821.840453015
 0.0462802305775  -0.966499764293 -0.0378434129471 821.860382741
  0.065288157684   -1.02893423408 -0.0545240085343 821.879515641
 0.0786995046932   -1.07994125557 -0.0730213156594 821.899494767
 0.0858104198193   -1.10637891662 -0.0909015425216 821.919726244
0.0867566730136  -1.09373634942 -0.105718566915 821.939716847
0.0823785895672  -1.02858819217 -0.115355717071 821.959375385
0.0739921089951  -0.90120155798 -0.118334178615 821.978909088
 0.063110724655 -0.707814364137  -0.11404628463 821.999338608
0.0511698073472 -0.452133933297 -0.102882306766 822.019388297
 0.0393031910742  -0.145720474621 -0.0862291076366 822.03968895
 0.0282099589457   0.192893865435 -0.0663298785624 822.059592411
 0.0181278153453   0.540272571835 -0.0460090009223 822.079393273
0.00890344593005   0.871024342913 -0.0282856865313 822.09918673
0.000128686908689      1.1611501174  -0.0159220771773 822.119837546
-0.00869755441195     1.39121067881  -0.0109709427041 822.14002822
-0.0180155828567    1.54875741145 -0.0143990906618 822.159763091
-0.0280783424753    1.62960014607 -0.0258600305393 822.180016047
-0.0388577284465    1.63770473161 -0.0436708853998 822.199767146
-0.0499860191237    1.58377495111 -0.0650156136107 822.218205444
-0.0607404805569    1.48282486612 -0.0863552453886 822.237337057
-0.0700865045417    1.35123688269  -0.103984928065 822.257956663
-0.0767938999432    1.20388935403   -0.11464614077 822.27857633
-0.0796271675146    1.05190801559  -0.116087085087 822.299644666
-0.0775864874481   0.901453946832  -0.107468144769 822.318513298
-0.0701512322928   0.753733826922 -0.0895325487573 822.336682276
-0.0574638905359   0.606149365557   -0.06450233022 822.356630693
-0.0403976303517   0.454247539942 -0.0357103509535 822.377531065
 -0.0204759700433    0.293951986591 -0.00703086431504 822.399481527
0.000349086909629    0.123499267171   0.0177878200878 822.418899616
 0.0200152984149 -0.0554061592695  0.0357644081863 822.437794068
0.0366917662449 -0.237487509457 0.0451798982982 822.457445095
0.0490622858518 -0.414826894569  0.045836052221 822.478000084
0.0564830059043 -0.578545714523  0.039032346031 822.499320748
0.0589808829213 -0.720762006611 0.0272715880453 822.521252392
0.0571043051401 -0.836297524347  0.013756848068 822.540080477
 0.0516797411258  -0.923690147352 0.00178095556687 822.558688563
  0.0435544454572   -0.985259419632 -0.00587416748332 822.578886679
  0.0334059724863     -1.0262208975 -0.00742031081862 822.59915441
  0.0216741154245    -1.05308429711 -0.00234960503581 822.621200477
